ply
format ascii 1.0
element vertex 2104
property float x
property float y
property float z
element face 0
property list uchar int vertex_indices
end_header
58398 105732 139.885
82840.6 105608 139.885
82983.8 105930 139.885
119825 105930 139.885
131395 105930 139.885
7797.54 106080 139.885
7864.74 106359 139.885
28059.8 106359 139.885
57871.6 106359 139.885
83061 106359 139.885
131365 106359 139.885
7986.14 106788 139.885
28335.1 106788 139.885
57630.8 106788 139.885
83097.2 106788 139.885
131295 106786 139.88
8127.64 107216 139.885
29238.4 106959 139.885
29097.4 107075 139.532
29667.2 107042 139.885
29581.8 107131 139.671
30045.7 107216 139.885
57428.9 107105 139.606
83144.2 107216 139.885
119985 107054 139.478
131262 107216 139.885
8355.94 107645 139.885
29926.9 107476 139.462
30433.4 107645 139.885
57425.4 107645 139.885
83157.6 107645 139.885
119845 107645 139.885
131297 107574 139.885
30515.6 108074 139.885
57354 108074 139.885
83143.8 108074 139.885
120026 107953 139.581
119928 108074 139.885
131396 108074 139.885
8655.14 108096 139.885
9024.02 108443 139.735
30486 108503 139.885
57262.3 108503 139.885
83126.9 108503 139.885
120073 108428 139.698
131540 108503 139.885
9076.78 108925 139.867
30375 108932 139.885
57228.4 108932 139.885
83090.2 108932 139.885
120117 108901 139.807
131726 108850 139.885
9392.58 109240 139.584
29976.5 109241 139.586
30199.3 109361 139.885
57237.6 109361 139.885
82725.7 109246 139.597
83028.5 109361 139.885
120205 109361 139.885
132188 109361 139.885
9336.74 109789 139.885
30030 109789 139.885
57226.1 109789 139.885
82987.4 109789 139.885
120466 109789 139.885
132560 109789 139.885
57267.7 110218 139.885
132759 110218 139.885
9819.24 110647 139.885
29172.6 110647 139.885
29667.2 110229 139.885
57271.2 110647 139.885
82276 110511 139.545
82840.6 110394 139.885
120779 110647 139.885
132836 110647 139.885
10181.3 111076 139.885
28809.5 110816 139.885
57339.6 111076 139.885
82576.8 111076 139.885
120918 110988 139.665
120820 111076 139.885
132812 111076 139.885
10370.4 111277 139.885
10562.5 111505 139.885
28010.8 111505 139.885
57430.3 111395 139.609
57415.1 111505 139.885
82495.4 111505 139.885
120889 111388 139.593
120772 111505 139.885
132697 111505 139.885
10974.9 111933 139.885
27764.5 111933 139.885
57474.4 111933 139.885
132525 111875 139.738
11228 112162 139.885
27523.1 112299 139.885
57519.2 112362 139.885
81860.6 112240 139.579
82307.7 112362 139.885
82411.8 111959 139.885
120753 112362 139.885
132374 112362 139.885
11656.8 112509 139.885
12032.7 112791 139.885
27067.9 112765 139.819
82178.3 112791 139.885
120870 112655 139.545
120778 112791 139.885
132281 112791 139.885
26515.1 113220 139.885
57857.1 113220 139.885
81401.6 113067 139.503
81974.7 113212 139.864
120740 113220 139.885
12514.4 113324 139.885
25691 113532 139.593
25807.8 113551 139.885
26236.6 113387 139.885
58142.4 113649 139.885
81471.6 113566 139.678
12943.3 113735 139.885
13372.1 114059 139.885
24950.2 113840 139.885
58363.6 114043 139.799
81535 114058 139.837
132155 113828 139.885
13800.9 114332 139.885
14081.2 114506 139.885
24092.5 114417 139.885
23866.8 114506 139.885
24521.4 114203 139.885
58530.8 114506 139.885
81402.2 114506 139.885
120505 114506 139.885
132089 114441 139.721
14658.5 114772 139.885
15087.4 114914 139.885
20635 114908 139.817
21090.8 114896 139.885
21457.2 114873 139.729
21948.5 114828 139.885
22377.3 114786 139.885
22806.1 114742 139.885
23234.9 114679 139.885
58746.4 114855 139.684
58654.3 114935 139.885
81240.6 114935 139.885
120455 114935 139.885
132000 114935 139.885
15516.2 114967 139.885
15945 115033 139.885
16373.8 115186 139.885
16752.1 115364 139.885
19804.4 115155 139.885
19397.9 115364 139.885
20233.2 114979 139.885
58658.2 115364 139.885
81017.1 115364 139.885
120447 115234 139.561
120377 115364 139.885
132061 115270 139.65
131944 115364 139.885
17231.5 115513 139.885
17660.3 115559 139.885
18089.1 115564 139.885
18517.9 115557 139.885
18946.7 115519 139.885
58726.5 115693 139.634
58567.6 115793 139.885
81026 115793 139.885
120289 115793 139.885
132023 115661 139.555
131638 116222 139.885
58659.2 116483 139.466
58596.3 116650 139.885
81554.2 116402 139.885
120120 116650 139.885
131569 116493 139.492
131420 116650 139.885
81928.2 117024 139.748
120057 117079 139.885
131260 117079 139.885
58927.9 117508 139.885
81848.3 117373 139.548
82121.3 117508 139.885
119987 117347 139.482
119980 117508 139.885
131180 117391 139.593
131187 117508 139.885
59101.6 117937 139.885
82092.5 117937 139.885
119934 117937 139.885
131144 117937 139.885
59306.8 118366 139.885
119892 118366 139.885
131056 118366 139.885
59505.4 118795 139.885
119833 118795 139.885
130898 118795 139.885
59759.2 119223 139.885
81631.9 119223 139.885
119811 119223 139.885
130676 119223 139.885
60065.4 119652 139.885
81387.9 119652 139.885
119792 119652 139.885
130365 119652 139.885
60569.8 120081 139.885
119730 120081 139.885
130136 120081 139.885
60781.8 120510 139.885
81125.4 120249 139.885
80984.3 120510 139.885
119673 120510 139.885
129995 120494 139.846
60971 120867 139.885
80925.1 120939 139.885
119628 120939 139.885
129909 120837 139.63
129789 120939 139.885
61153.1 121367 139.885
80856.9 121367 139.885
119632 121367 139.885
129552 121338 139.811
61229.6 121796 139.885
72847.2 121796 139.885
73406.7 121765 139.885
74985.8 121796 139.885
75550.8 121713 139.885
76008.4 121796 139.885
80830.3 121796 139.885
119665 121796 139.885
129215 121796 139.885
61222.3 122225 139.885
69911.6 122161 139.724
70375.9 122196 139.812
71210.9 122173 139.755
72120.2 122102 139.885
72549 121907 139.885
74264.3 121914 139.885
74693.1 121864 139.885
76408.4 121972 139.885
76837.2 122170 139.885
80855.2 122224 139.887
119719 122139 139.885
61199.9 122654 139.885
67141.5 122654 139.885
67832 122519 139.885
69104.1 122639 139.849
69547.3 122615 139.885
70833.8 122386 139.885
71691.4 122294 139.885
77266 122374 139.885
77764 122654 139.885
80898.5 122596 139.836
119783 122654 139.885
128696 122615 139.892
61128.9 123083 139.885
68689.7 122668 139.885
78094.4 123053 139.811
81050.7 123059 139.938
119836 123083 139.885
127903 122994 139.885
127665 123097 139.898
128288 122839 139.889
60974.4 123512 139.885
78223.7 123512 139.885
81028.6 123351 139.608
119585 123377 139.549
119842 123512 139.885
127481 123280 139.887
127259 123568 139.861
60745 123940 139.885
65188.1 123869 139.707
65688 123718 139.885
78308.2 123940 139.885
81383 123831 139.907
119798 123940 139.885
65244.7 124355 139.849
78377.2 124369 139.885
81539.7 124259 139.79
119575 124369 139.885
127013 124093 139.885
126896 124369 139.885
60236.9 124798 139.885
60542.1 124376 139.885
65200.9 124798 139.885
78403.7 124798 139.885
119562 124798 139.885
59931 125227 139.885
78409.4 125227 139.885
81954.4 124883 139.884
82186.5 125278 139.872
119719 125205 139.885
126401 125227 139.885
59649.8 125621 139.798
64672.1 125497 139.489
65058 125656 139.885
78406.2 125656 139.885
82392 125595 139.845
120192 125656 139.885
126151 125472 139.885
59272.2 126084 139.885
64935.5 126084 139.885
78422.9 126084 139.885
120577 125928 139.885
125572 126084 139.885
64788.7 126513 139.885
78422.9 126384 139.561
78454.2 126513 139.885
121005 126264 139.885
121315 126513 139.885
125271 126513 139.885
58398 126917 139.885
64614.8 126942 139.885
78505.3 126942 139.885
83104.3 126807 139.575
83476.1 126943 139.886
121863 126818 139.885
124798 126942 139.885
57927.4 127329 139.78
64437.8 127371 139.885
83813.8 127369 139.882
122292 127020 139.885
122721 127148 139.885
123150 127238 139.885
123490 127282 139.662
124007 127238 139.885
124436 127147 139.885
52357.3 127763 139.792
52823.4 127518 139.885
52760.3 127737 139.727
53193.8 127741 139.739
53834.4 127800 139.885
57099.4 127788 139.854
57540.4 127511 139.885
57458.9 127718 139.681
64236.4 127800 139.885
78636.5 127800 139.885
84133.8 127799 139.886
52685.2 128090 139.539
53142 128118 139.609
53611.7 128159 139.711
54061.7 128180 139.764
54538.6 128052 139.885
54967.5 128157 139.885
55380.4 128213 139.845
55825.1 128089 139.885
56204.4 128179 139.761
56682.7 127937 139.885
56611.2 128157 139.706
64075.1 128229 139.885
78717 128229 139.885
83956.4 128044 139.475
51804.4 128657 139.885
53084.9 128490 139.466
53547.8 128524 139.552
53995.9 128543 139.6
54437 128556 139.631
54875.2 128565 139.654
55296.5 128558 139.635
55705 128537 139.584
63915.6 128657 139.885
78870.9 128657 139.885
51780.2 129086 139.885
63760.8 129086 139.885
84985.6 128874 139.886
51431.1 129409 139.62
51853.8 129515 139.885
63576.2 129515 139.885
79249.9 129515 139.885
85368.2 129459 139.781
52002.4 129944 139.885
63371.2 129944 139.885
79410.1 129819 139.885
85840.1 129840 139.88
51917.2 130324 139.763
79838.9 130359 139.885
86224.5 130338 139.784
52113.5 130801 139.885
63115 130484 139.885
62943.8 130801 139.885
80184.8 130801 139.885
86664.8 130754 139.77
51908.9 131173 139.743
80529 131230 139.885
87135.7 131022 139.889
87027.4 131145 139.696
52025.4 131659 139.885
62686.2 131233 139.885
80696.6 131420 139.885
80906.6 131659 139.885
51952.1 132074 139.851
62257.4 131827 139.885
62038.6 132088 139.885
88375.7 132048 139.786
51934 132485 139.805
61828.6 132346 139.885
81554.2 132390 139.885
88757.9 132431 139.669
51900.5 132880 139.722
61399.8 132817 139.885
81983 132848 139.885
89126.7 132799 139.519
89701.7 132759 139.885
52233.5 133374 139.885
60906.3 133374 139.885
82411.8 133276 139.885
90010.3 133254 139.584
90559.4 133181 139.885
90988.2 133310 139.885
91447.7 133370 139.887
51819.6 133657 139.519
60542.1 133774 139.885
82840.6 133676 139.885
91269.3 133680 139.588
91944.4 133499 140
91710.2 133689 139.692
52390.5 134228 139.875
83269.4 134073 139.885
83454.5 134232 139.885
92269.8 134202 139.812
52348.4 134615 139.769
59684.4 134635 139.885
83698.3 134430 139.885
52300 134995 139.648
52687.1 135090 139.885
59255.6 135012 139.885
84127.1 134734 139.885
84640.6 135090 139.885
52237.5 135361 139.492
52799.7 135495 139.825
58826.8 135378 139.885
84984.7 135328 139.885
92216.9 135459 139.736
52721.4 135845 139.63
53223.6 135947 139.885
58398 135721 139.885
58046.1 135947 139.885
85413.5 135581 139.885
85842.4 135819 139.885
53150.5 136274 139.63
57430.7 136266 139.61
57540.4 136209 139.885
86271.2 136098 139.885
86700 136320 139.885
91801.8 136332 139.775
53552.6 136676 139.564
54109.8 136691 139.885
56244.5 136805 139.885
56595.4 136718 139.666
56682.7 136642 139.885
57111.5 136469 139.885
87128.8 136515 139.885
87557.6 136692 139.885
87863.9 136805 139.885
91402.3 136790 139.848
91731 136690 139.598
54829.5 137096 139.54
54967.5 136977 139.885
55396.3 136958 139.885
55825.1 136919 139.885
88415.3 136997 139.885
88844.1 137120 139.885
90559.4 137165 139.885
90925.2 137171 139.727
89272.9 137234 139.885
90130.5 137241 139.885
22265.5 91950.5 140.314
22977.7 91881.3 140.314
23352.3 91896.3 140.178
23858.1 91950.5 140.314
21262.4 92290.4 140.314
21691.2 92098.4 140.314
24264.1 92087.9 140.314
24693 92273.3 140.314
17831.9 92805.1 140.314
18260.7 92657.7 140.314
18689.5 92571 140.314
19118.3 92537.3 140.314
19547.1 92531.2 140.314
19976 92557.7 140.314
20404.8 92563.1 140.314
20833.6 92475.4 140.314
25121.8 92490 140.314
25550.6 92634.3 140.314
26077 92808.2 140.314
16709.4 93237 140.314
16974.2 93111.3 140.314
17403.1 92952.3 140.314
26408.2 92972 140.314
26837.1 93222.6 140.314
16024 93665.8 140.314
27363.4 93665.8 140.314
15587.1 94094.6 140.314
27732.7 94094.6 140.314
15079.1 94523.4 140.314
27988.9 94523.4 140.314
14429.4 94952.3 140.314
14830.1 94712.6 140.314
28123.5 94827.9 140.314
13972.5 95202.9 140.314
28036.3 95293.9 140.096
28278.2 95381.1 140.314
68890.4 95381.1 140.314
69290 95224.6 140.314
69718.8 95167.3 140.314
70147.6 95178.3 140.314
70576.5 95240.7 140.314
71005.3 95276.7 140.314
71434.1 95290.9 140.314
71862.9 95334.7 140.314
13543.7 95511.9 140.314
28050.9 95737.3 140.132
28294.9 95809.9 140.314
67833.8 95640.1 139.889
67975.4 95809.9 140.314
68432.4 95585.3 140.314
72291.7 95448.1 140.314
72720.6 95651.6 140.314
72980.5 95809.9 140.314
12553.8 96106.5 139.983
12828.1 96238.7 140.314
13114.9 95888.8 140.314
27539.4 96083.4 139.925
67400.8 96238.7 140.314
67574.7 96075.7 140.314
73578.2 96145.2 140.314
12533.7 96667.5 140.314
27137.5 96539.2 139.993
27634.1 96606.9 140.162
28123.5 96395.1 140.314
67024.4 96667.5 140.314
74007 96466.8 140.314
74249.1 96667.5 140.314
118569 96632.1 140.225
119033 96587.5 140.314
121177 96590.6 140.314
121599 96660.3 140.296
12184.4 97096.3 140.314
26726.1 96985.4 140.036
27476.7 97096.3 140.314
74643.2 97096.3 140.314
117720 97069.4 140.246
118175 96705.6 140.314
118066 96987.4 140.041
118872 96935 139.91
119331 96965.7 139.987
119891 96801.9 140.314
119807 97012.9 140.105
120319 96810.6 140.314
120258 97034.7 140.16
120681 97029.1 140.146
121085 97004.7 140.085
122364 96996.4 140.064
122892 97034.9 140.314
11663.5 97525.2 140.314
26767.5 97455.7 140.14
27109.3 97525.2 140.314
66717.1 97135.5 140.314
74898.3 97525.2 140.314
117318 97466.7 140.314
117630 97409 140.023
123321 97188.6 140.314
123750 97395.9 140.314
11214.8 97954 140.314
11399.6 97772.1 140.314
26769.8 97886.8 140.145
27014 97954 140.314
65881.1 97954 140.314
66288.3 97632 140.314
117190 97954 140.314
124608 97766.8 140.314
125036 97835.5 140.314
125465 97920.6 140.314
10937.3 98382.8 140.314
27053.5 98382.8 140.314
65397.6 98382.8 140.314
75293.5 98151.3 140.314
75523.9 98382.8 140.314
117303 98368.3 140.277
125894 98122.4 140.314
125792 98280.5 140.058
10688.8 98811.6 140.314
27337.3 98811.6 140.314
65090.7 98811.6 140.314
75722.3 98580.6 140.314
75946.3 98811.6 140.314
117564 98811.6 140.314
126323 98401.4 140.314
126217 98705.8 140.049
10311.6 99240.4 140.314
64823.4 99240.4 140.314
76151.1 99017.8 140.314
76323.6 99240.4 140.314
117746 99024.5 140.314
117962 99240.4 140.314
126668 99156.9 140.105
9773.56 99669.3 140.314
10113.2 99420.6 140.314
27753.4 99669.3 140.314
64631.4 99669.3 140.314
76622 99669.3 140.314
118175 99400.6 140.314
9107.36 100098 140.314
27866.4 100098 140.314
64406 100098 140.314
76849.8 100098 140.314
118604 99850.3 140.314
118850 100098 140.314
127609 99748 140.314
128196 100098 140.314
8748.56 100527 140.314
27987 100527 140.314
64186.8 100527 140.314
77008.7 100396 140.314
118902 100396 139.987
119052 100527 140.314
128467 100278 140.314
8552.46 100956 140.314
28123.5 100779 140.314
63967.4 100956 140.314
77291.9 100956 140.314
119243 100956 140.314
128896 100684 140.314
129097 100956 140.314
8376.7 101363 140.261
28431.9 101385 140.314
77437.6 101229 140.314
119377 101385 140.314
129371 101385 140.314
8139.96 101813 140.314
28529.2 101813 140.314
63584.2 101813 140.314
63715.4 101489 140.314
77744.2 101813 140.314
119620 101813 140.314
129720 101813 140.314
77866.4 102147 140.314
119727 102242 140.314
130092 102242 140.314
7872.56 102671 140.314
28473.5 102671 140.314
63120.5 102671 140.314
78071.7 102671 140.314
119767 102548 140.006
119721 102671 140.314
130323 102671 140.314
7812.46 103100 140.314
28433.3 103100 140.314
62857.7 103034 140.314
78295.2 103029 140.314
119739 102948 139.935
119697 103100 140.314
7777.16 103529 140.314
28406.8 103529 140.314
78568.8 103529 140.314
119640 103529 140.314
130921 103529 140.314
7757.36 103958 140.314
28418.6 103958 140.314
62180.3 103958 140.314
62428.9 103617 140.314
79061.8 103958 140.314
119593 103958 140.314
131197 103958 140.314
7759.56 104386 140.314
28407.5 104386 140.314
61946.4 104386 140.314
79508.4 104386 140.314
130872 104219 139.894
131355 104386 140.314
7779.06 104815 140.314
28407.9 104815 140.314
80010.5 104731 140.314
80325.8 104702 140.03
81148.9 104667 139.943
119577 104815 140.314
7816.56 105244 140.314
28419.3 105244 140.314
59695 105083 139.911
60787.3 105244 140.314
61142.5 105089 140.314
61571.3 104897 140.314
80439.3 105001 140.314
80868.1 105063 140.314
81297 105078 140.314
81725.8 105096 140.314
119736 105089 139.926
131365 105140 140.054
131603 105244 140.314
7876.56 105673 140.314
28404.3 105673 140.314
59427.2 105503 140.314
59856 105458 140.314
60284.9 105428 140.314
82583.4 105287 140.314
83018 105673 140.314
119748 105530 139.956
119544 105673 140.314
131731 105673 140.314
7939.06 106102 140.314
28413.3 106102 140.314
58419.1 106102 140.314
58998.4 105728 140.314
83257.7 106102 140.314
119577 106102 140.314
131789 106102 140.314
8030.26 106530 140.314
28552.3 106413 140.314
58140.8 106403 140.314
83334.6 106530 140.314
119766 106406 140.003
119636 106530 140.314
131776 106530 140.314
8146.36 106959 140.314
28981.1 106735 140.314
28857.7 106836 140.005
29410 106768 140.314
29319.6 106869 140.088
29838.8 106817 140.314
57748.5 106959 140.314
119751 106820 139.965
119652 106959 140.314
131714 106959 140.314
8271.96 107388 140.314
30667.4 107359 140.241
57590 107388 140.314
119742 107239 139.941
119646 107388 140.314
131642 107388 140.314
8397.86 107793 140.314
30889.7 107817 140.314
57498.9 107817 140.314
83479 107817 140.314
119679 107817 140.314
131611 107817 140.314
8556.76 108246 140.314
30847.2 108246 140.314
57434.2 108246 140.314
83383.8 108188 140.171
119834 108189 140.173
131653 108246 140.314
8765.38 108613 140.16
30745.7 108674 140.314
57373.8 108674 140.314
83509.2 108674 140.314
119901 108674 140.314
131759 108674 140.314
8772.06 109103 140.314
30624.8 109103 140.314
57344.7 109103 140.314
83484.1 109103 140.314
131970 109103 140.314
9120.1 109397 139.975
30463.3 109532 140.314
83420.8 109532 140.314
120015 109532 140.314
9165.46 109871 140.089
9034.56 109961 140.314
30264.1 109961 140.314
57234.9 109913 140.193
120256 109897 140.154
132326 109557 140.314
132644 109961 140.314
9231.98 110366 140.255
9530.14 110236 139.928
29925.2 110390 140.314
57222.9 110390 140.314
83296.7 110390 140.314
120298 110390 140.314
120601 110242 139.945
132843 110390 140.314
29410 110775 140.314
57220.2 110818 140.314
83184.9 110818 140.314
120650 110720 140.068
120395 110818 140.314
132914 110818 140.314
9684.26 111012 140.314
9919.46 111247 140.314
28393.8 111089 139.917
28759 111247 140.314
28981.1 111026 140.314
57283.1 111199 140.314
83090.7 111247 140.314
120670 111170 140.119
10392.5 111676 140.314
28407.9 111676 140.314
83012.2 111622 140.314
120651 111579 140.07
120462 111676 140.314
132704 111676 140.314
10869 112105 140.314
28123.5 112023 140.314
57433.2 112105 140.314
120640 111997 140.044
120496 112105 140.314
132503 112105 140.314
27609.7 112534 140.314
57497.3 112534 140.314
82820.5 112534 140.314
120659 112445 140.091
120561 112534 140.314
132342 112534 140.314
11399.6 112541 140.314
11828.4 112808 140.314
27265.9 112806 140.314
57604.9 112963 140.314
82509.4 112889 140.129
120674 112889 140.129
132279 112963 140.314
12257.2 113076 140.314
12667.4 113391 140.314
26403.6 113387 140.302
26837.1 113130 140.314
120655 113298 140.08
120557 113391 140.314
132239 113304 140.095
13114.9 113747 140.314
25390.2 113660 139.913
25550.6 113658 140.314
25284.7 113820 140.314
25979.4 113531 140.314
58012.5 113820 140.314
82063.8 113730 140.087
82583.4 113421 140.314
120623 113696 140.002
132148 113820 140.314
13543.7 114047 140.314
13885.9 114249 140.314
24770.5 114249 140.314
58237 114249 140.314
120578 114079 139.889
132046 114249 140.314
14554.7 114678 140.314
24264.1 114567 140.314
58380.2 114678 140.314
81844 114678 140.314
131976 114678 140.314
14830.1 114793 140.314
15259 114946 140.314
15687.8 115026 140.314
16116.6 115070 140.314
20404.8 114986 140.314
20833.6 114929 140.314
21262.4 114961 140.314
21691.2 115006 140.314
22120.1 115016 140.314
22548.9 114979 140.314
22977.7 114928 140.314
23406.5 114840 140.314
23835.3 114747 140.314
58524.3 115061 140.2
81621.8 115107 140.314
131945 115107 140.314
16545.4 115189 140.314
16974.2 115365 140.314
17439.5 115536 140.314
19081 115498 140.22
19547.1 115371 140.314
19976 115192 140.314
58459.5 115536 140.314
81420.4 115536 140.314
120265 115536 140.314
120319 115146 140.314
131897 115481 140.314
18260.7 115600 140.314
18689.5 115568 140.314
58479.8 115875 140.089
58422.4 115964 140.314
81404.7 115964 140.314
120220 115964 140.314
131808 115875 140.09
58471.6 116295 140.069
58434.2 116393 140.314
81697.5 116365 140.243
120191 116265 139.992
120159 116393 140.314
131641 116393 140.314
82094 116761 140.162
120101 116822 140.314
131444 116822 140.314
58569.6 116936 140.314
58723.2 117251 140.314
82443.6 117251 140.314
120044 117251 140.314
131281 117251 140.314
82483.9 117680 140.314
119984 117680 140.314
131194 117680 140.314
58998.4 117855 140.314
59137.2 118108 140.314
82420.8 118108 140.314
119968 118108 140.314
59309.7 118537 140.314
81988.2 118371 139.898
131046 118537 140.314
59459.9 118966 140.314
82154.6 118701 140.314
81994.2 118966 140.314
119911 118966 140.314
130898 118966 140.314
59590 119395 140.314
81756.1 119395 140.314
119924 119395 140.314
130622 119395 140.314
81493.1 119824 140.314
119939 119824 140.314
130313 119824 140.314
59856 119955 140.314
60214.7 120182 140.138
81320.6 120252 140.314
119854 120252 140.314
130104 120175 140.119
60652.4 120620 140.16
81092.9 120681 140.314
119841 120681 140.314
129935 120681 140.314
60829.7 121110 140.314
80987.9 121110 140.314
119823 121110 140.314
129753 121059 140.314
61140.4 121537 140.308
119830 121539 140.314
129446 121539 140.314
75232.2 121968 140.314
75814.8 121968 140.314
80948.1 121968 140.314
119933 121968 140.314
129193 121968 140.314
61338 122397 140.314
72671.8 122348 140.192
73578.2 122234 140.314
74007 122246 140.314
74435.8 122177 140.314
74864.7 122059 140.314
76151.1 122029 140.314
76579.9 122262 140.314
81017 122400 140.326
119976 122397 140.314
67458.4 122709 140.023
67905.4 122727 140.068
68297.5 122691 139.976
70013 122691 139.977
70451.6 122701 140.001
70878.8 122699 139.997
71314.9 122706 140.016
71764.2 122727 140.067
72232.9 122767 140.166
72760.1 122825 140.314
77008.7 122553 140.314
77480.1 122825 140.314
81079.4 122804 140.249
119994 122825 140.314
128456 122741 140.327
128895 122446 140.31
66577.7 123115 139.965
67102.2 123211 140.204
67574.7 123197 140.314
68410.9 123233 140.26
68799.5 123193 140.159
69199.5 123164 140.087
69609.7 123145 140.041
70040.1 123147 140.045
70467.5 123145 140.041
70898 123147 140.045
71337 123157 140.071
71781.7 123173 140.111
72237.5 123200 140.178
72730.5 123254 140.314
77962.1 123254 140.314
81424.1 123246 140.456
120026 123254 140.314
128050 122946 140.29
127760 123228 140.309
60970.9 123683 140.314
66174.7 123570 140.03
66701 123667 140.273
69664.9 123629 140.179
70086.3 123622 140.16
70514 123621 140.157
70945.9 123624 140.165
71383.5 123632 140.187
71826.4 123647 140.222
72404.7 123683 140.314
78158.5 123683 140.314
81445.9 123554 140.225
120077 123683 140.314
127576 123677 140.318
60743.4 124112 140.314
65738.8 123991 140.012
66261.8 124085 140.247
68861.2 123782 140.314
69290 123879 140.314
70147.6 123944 140.314
70576.5 123928 140.314
71005.3 123906 140.314
78295.2 124096 140.314
81753.7 123984 140.324
120098 124112 140.314
127377 124112 140.314
65803.8 124485 140.174
78405.7 124541 140.314
119803 124453 140.094
120069 124541 140.314
127133 124541 140.314
60115.8 124970 140.314
65859.5 124888 140.314
78469.8 124970 140.314
82147.9 124639 140.308
120030 124970 140.314
126802 124970 140.314
59825.1 125368 140.236
65618.8 125398 140.314
78497.9 125398 140.314
82476.5 125279 140.218
120168 125398 140.314
59399.7 125800 140.245
78506.8 125827 140.314
82963 125828 140.288
120319 125661 140.314
125848 125781 140.197
58982.4 126240 140.274
65430.7 125871 140.314
65286.3 126256 140.314
78529.8 126256 140.314
82867.4 126127 139.955
120748 125957 140.314
121144 126256 140.314
125389 126256 140.314
58518.5 126634 140.186
58845.4 126532 139.931
78547.4 126685 140.314
83445.8 126367 140.337
83338.7 126583 140.056
121606 126562 140.314
125029 126677 140.294
52946.4 127065 140.192
53423.8 126925 140.314
52995 127014 140.314
53852.6 126806 140.314
53791.8 127053 140.162
54244.3 127077 140.221
54681.8 127114 140.314
57712 126974 140.314
58054.6 127027 140.098
65001.8 126858 140.314
64873.5 127114 140.314
78593.2 127114 140.314
83869.9 126913 140.314
83800.4 127044 140.14
122463 126969 140.314
52904.9 127114 140.314
52916.5 127554 140.371
53272.2 127391 139.935
53737.4 127427 140.026
54200.2 127461 140.111
54655.9 127488 140.178
55102 127505 140.221
55567.9 127362 140.314
55961.3 127507 140.225
56425.5 127355 140.314
56811.5 127500 140.207
57283.1 127198 140.314
57209.5 127469 140.13
78577.4 127396 139.947
78637.3 127542 140.314
84257.5 127501 140.211
123321 127243 140.314
123750 127289 140.314
124179 127204 140.314
52487.5 127971 140.314
52713 127787 140.204
54133.4 127823 139.944
54586 127847 140.003
55032.9 127865 140.048
55461.9 127865 140.049
55883.9 127859 140.032
56306.1 127852 140.015
64573 127752 140.314
64466.2 127971 140.314
84727.5 127947 140.314
51993.2 128256 139.953
64289.8 128400 140.314
78724 128056 140.314
78799.4 128400 140.314
84602.7 128275 140.002
52479.6 128829 140.314
64128.8 128829 140.314
78948.8 128829 140.314
52024.7 129145 140.032
52568.7 129258 140.314
63947.3 129258 140.314
79131.8 129258 140.314
85510.1 129183 140.126
52681.2 129686 140.314
79333 129686 140.314
85944.1 129617 140.139
52512.6 130062 140.18
63715.4 129788 140.314
63563.8 130115 140.314
86372 130045 140.137
52679.9 130544 140.314
63371.7 130544 140.314
79581.7 130123 140.314
79911.7 130544 140.314
86790 130463 140.11
52624.7 130973 140.314
63125.4 130973 140.314
80270.2 130973 140.314
87196.3 130869 140.053
62857.3 131402 140.314
80439.3 131177 140.314
80630.5 131402 140.314
87592.9 131269 139.982
88158.1 131308 140.314
52528.5 131831 140.314
52566.1 131454 140.314
62543.4 131831 140.314
80868.1 131668 140.314
87992.9 131666 139.901
88514.8 131759 140.133
62207.5 132259 140.314
81431.6 132259 140.314
88905.9 132150 140.039
89626 132259 140.314
52566.1 132335 140.314
52533 132655 140.231
62000.1 132513 140.314
81820.4 132688 140.314
89282.3 132526 139.908
89776.7 132592 140.072
90302.1 132545 140.314
52499.9 133051 140.148
61432.9 133117 140.314
82154.6 133056 140.314
90139.3 132954 139.907
90731 132713 140.314
90623.7 133010 140.045
91075.8 133033 140.104
91488.4 133048 140.147
91946.2 133164 140.282
52814.8 133546 140.314
61142.5 133426 140.314
82687.5 133546 140.314
92172.2 133664 140.397
52425.3 133834 139.962
52929 133975 140.314
60611.3 133975 140.314
83170.2 133975 140.314
92202.9 133859 139.939
92333.2 134032 140.357
52995 134206 140.314
60117.9 134236 139.896
60145 134404 140.314
83441 134213 140.314
92294.3 134379 140.228
52923.4 134761 140.135
59856 134642 140.314
59613.9 134832 140.314
83869.9 134549 140.314
84297.8 134831 140.311
92327.3 134687 140.043
53435.2 135261 140.314
84727.5 135111 140.314
91852.3 135261 140.314
92266.8 135083 139.934
53348 135614 140.124
58569.6 135629 140.314
85156.3 135396 140.314
85585.1 135624 140.314
91909.8 135582 140.045
53790.3 136057 140.158
57712 136105 140.314
58140.8 135884 140.314
86014 135866 140.314
86442.8 136072 140.314
91468.3 136119 140.314
91853 135954 139.903
53681.2 136376 139.885
54212.3 136479 140.141
56811.9 136505 140.208
57283.1 136304 140.314
86871.6 136315 140.314
87300.4 136516 140.314
91095.9 136548 140.314
91486 136445 140.057
54710.2 136598 140.314
54580.8 136847 139.99
55049.3 136887 140.089
55468.8 136877 140.066
55567.9 136738 140.314
55996.7 136689 140.314
56425.5 136591 140.314
88158.1 136800 140.314
88547.7 136937 140.216
90287.9 136962 140.278
90676.2 136922 140.177
91058.4 136875 140.06
89444.5 137058 140.314
89725.1 137257 139.943
89873.3 137054 140.314
21710.3 92122 140.742
22291.6 91966.2 140.742
22720.4 91937.5 140.742
23149.2 91921.4 140.742
23578 91954.9 140.742
24006.8 92035.5 140.742
21005.1 92442.6 140.742
21433.9 92248.3 140.742
24435.6 92147 140.742
24864.5 92329.6 140.742
25260.6 92550.9 140.742
18003.4 92918.9 140.742
18432.2 92806.8 140.742
18861 92731.9 140.742
19289.8 92690.4 140.742
19718.6 92652.3 140.742
20147.5 92633.1 140.742
20576.3 92594 140.742
25722.1 92792.4 140.742
26150.9 92931.2 140.742
16796 93408.5 140.742
17145.7 93222.7 140.742
17574.6 93060.3 140.742
26579.7 93116.3 140.742
27149 93408.5 140.742
16217.7 93837.3 140.742
27437.4 93612.6 140.742
15859.3 94145.5 140.742
15430.5 94457.4 140.742
28464.2 94694.9 140.742
14463.2 95123.8 140.742
15001.6 94701.8 140.742
28656.8 95123.8 140.742
13971.4 95552.6 140.742
14144 95382.3 140.742
69442.7 95552.6 140.742
71129.4 95505.2 140.624
71559.1 95506.1 140.626
13526.8 95981.4 140.742
13715.2 95783.9 140.742
28634.8 95892.5 140.52
29109.4 95938.3 140.634
29581.5 95806.6 140.742
30010.3 95903.8 140.742
68247.4 95981.4 140.742
68603.9 95818.6 140.742
69032.7 95667.5 140.742
70748 95560.5 140.742
72034.4 95610.1 140.742
72463.3 95721.8 140.742
72892.1 95917.3 140.742
13192.2 96410.2 140.742
28626.2 96312.7 140.498
29071.1 96328.8 140.539
29481.4 96310.1 140.492
29903.8 96303.7 140.476
30540.9 96410.2 140.742
67597.7 96410.2 140.742
73320.9 96142.1 140.742
73749.7 96351.8 140.742
118776 96366.4 140.742
120056 96404.4 140.728
119812 96410.2 140.742
120438 96357.2 140.61
120920 96046.3 140.742
120829 96319.4 140.515
121348 96022.4 140.742
121244 96305.5 140.48
121688 96321.1 140.52
122206 96251.2 140.742
12838 96819.5 140.694
28163.8 96707.9 140.414
28650.7 96765.9 140.56
29071.7 96758.1 140.54
29469.5 96727 140.462
29881.9 96710.7 140.421
30360.1 96760 140.545
30707.9 96839 140.742
67317.4 96692.5 140.742
74178.5 96641.4 140.742
117848 96768.9 140.567
118347 96450.3 140.742
119464 96669.8 140.319
120755 96674.7 140.331
122060 96693.2 140.378
122635 96489.6 140.742
122543 96747 140.512
123081 96839 140.742
12428.7 97257.7 140.742
28238.4 97211.2 140.601
29105.9 97221.1 140.626
29497 97183.3 140.531
29905.2 97162.8 140.48
30357.6 97186.4 140.539
30819.8 97267.8 140.742
66910.1 97267.8 140.742
74607.4 96974.8 140.742
117395 97173.6 140.507
123493 97100.5 140.742
11819 97696.7 140.742
11999.9 97553.6 140.742
27818.1 97648.6 140.622
28723.8 97490.8 140.742
29544.6 97659.8 140.65
29173.1 97696.7 140.742
29950.1 97636.5 140.592
30385.1 97642.7 140.607
30838.4 97696.7 140.742
75036.2 97404.3 140.742
75228.3 97696.7 140.742
116992 97696.7 140.742
123921 97381.3 140.742
124350 97553.7 140.742
124245 97591.5 140.479
124779 97650.6 140.742
125208 97672.9 140.742
11453.7 98125.5 140.742
27347.7 98035.8 140.518
27850 98125.5 140.742
30432.8 98119.2 140.727
30070.6 98125.5 140.742
66459.8 97862.9 140.742
75466.2 98125.5 140.742
117012 98125.5 140.742
126066 97960.2 140.742
11158.9 98554.3 140.742
27350.2 98467.2 140.524
65602.2 98549.2 140.742
66031 98228.5 140.742
117221 98554.3 140.742
126494 98195.5 140.742
126985 98554.3 140.742
10798.9 98983.1 140.742
27866.2 98787.3 140.742
75893.8 98732.7 140.742
117489 98842.5 140.742
126774 98834 140.369
127352 98969 140.742
28043.1 99411.9 140.742
65016.8 99411.9 140.742
65173.4 99096.1 140.742
76322.6 99096.5 140.742
76569.9 99411.9 140.742
117918 99208.7 140.742
127238 99297.9 140.457
9855.78 99642.6 140.742
10284.7 99435.1 140.742
28133.5 99840.8 140.742
76751.4 99655.1 140.742
118347 99502.9 140.742
118746 99840.8 140.742
127781 99606.3 140.742
127966 99840.8 140.742
8953.94 100225 140.632
64606.4 100270 140.742
64744.5 99989.7 140.742
119076 100270 140.742
128210 100047 140.742
8647.48 100698 140.742
28295 100486 140.742
77180.3 100421 140.742
77334.6 100698 140.742
119120 100698 140.742
128638 100356 140.742
8496.22 101054 140.559
28631.2 101127 140.742
64191.7 101127 140.742
64315.7 100840 140.742
129067 100714 140.742
8271.18 101556 140.742
28649.9 101482 140.558
64038.3 101556 140.742
77609.1 101229 140.742
77762.3 101556 140.742
119333 101556 140.742
129496 101185 140.742
129925 101516 140.742
8108.98 101985 140.742
28937.5 101985 140.742
63860.4 101985 140.742
119488 101985 140.742
130320 101951 140.658
7986.06 102259 140.356
7995.28 102414 140.742
28557.4 102247 140.326
28954 102414 140.742
63701.7 102414 140.742
78037.9 102149 140.742
78149.2 102414 140.742
119627 102407 140.726
130737 102414 140.742
7944.78 102843 140.742
28886 102843 140.742
78311.7 102843 140.742
119616 102825 140.7
130725 102785 140.598
7919.58 103271 140.742
28649.7 103197 140.557
63252.8 103271 140.742
63458.1 102926 140.742
78507.1 103271 140.742
119537 103271 140.742
130615 103104 140.324
131041 103271 140.742
7909.88 103700 140.742
28823.6 103700 140.742
63029.3 103560 140.742
78698.4 103700 140.742
119530 103700 140.742
131132 103621 140.545
7908.38 104129 140.742
28635.6 104041 140.522
28849.3 104129 140.742
62558.4 104129 140.742
78895.5 103938 140.742
79095.1 104129 140.742
119553 104049 140.542
131577 104129 140.742
7930.08 104558 140.742
28823.1 104558 140.742
62300.2 104558 140.742
79324.4 104328 140.742
119539 104464 140.507
119518 104558 140.742
131769 104558 140.742
7965.48 104987 140.742
28682.3 104945 140.639
62081.4 104987 140.742
79753.2 104686 140.742
80050.9 104987 140.742
119482 104987 140.742
131474 104820 140.326
131841 104987 140.742
8004.48 105415 140.742
28686.8 105378 140.65
61676.4 105415 140.742
80610.8 105301 140.742
81376.3 105323 140.512
82222.2 105312 140.483
119513 105296 140.443
119461 105415 140.742
131928 105415 140.742
8058.18 105844 140.742
28846.5 105844 140.742
59985.2 105802 140.637
60885.2 105680 140.742
61314 105599 140.742
81039.6 105537 140.742
81468.5 105607 140.742
81897.3 105579 140.742
82326.1 105615 140.742
82754.9 105692 140.742
119441 105844 140.742
132033 105844 140.742
28635.4 106185 140.521
30857.4 106263 140.716
58689.8 106273 140.742
59169.9 106090 140.742
59598.7 106012 140.742
83459.1 106273 140.742
119476 106273 140.742
8140.58 106378 140.742
8212.18 106702 140.742
29058.6 106608 140.507
29507.2 106628 140.557
30010.3 106415 140.742
29942.6 106634 140.573
30355.2 106618 140.533
30797 106631 140.565
31243.8 106649 140.61
31649.6 106702 140.742
58249.9 106702 140.742
83612.5 106667 140.742
119563 106631 140.566
132057 106690 140.713
8314.98 107131 140.742
30273 106965 140.327
30740.2 107003 140.423
31215.6 107050 140.54
31719.5 107125 140.727
83505 107023 140.474
83698.3 107131 140.742
119590 107088 140.635
8418.78 107560 140.742
31225.6 107488 140.565
57694.1 107560 140.742
57883.5 107187 140.742
83444.8 107392 140.323
83739.6 107560 140.742
119565 107560 140.742
131966 107560 140.742
31260.2 107952 140.651
57568.9 107988 140.742
83766.2 107988 140.742
119595 107950 140.647
8569.38 108139 140.742
8632.98 108417 140.742
31161.9 108417 140.742
83785.8 108417 140.742
131955 108417 140.742
8688.88 108846 140.742
30978.5 108846 140.742
83794.4 108846 140.742
119747 108846 140.742
8753.88 109275 140.742
30867.9 109095 140.742
57389.9 109210 140.581
57454.6 108858 140.742
83784.5 109275 140.742
119930 109143 140.412
119830 109275 140.742
132135 109275 140.742
8872.5 109578 140.428
8838.98 109704 140.742
30650.4 109704 140.742
57328.1 109577 140.426
57382.5 109704 140.742
83761.6 109704 140.742
119864 109704 140.742
132360 109704 140.742
8935.38 110132 140.742
30439.1 110070 140.742
57321.3 110132 140.742
83504.5 110024 140.472
83727.1 110132 140.742
119988 110059 140.558
132609 110132 140.742
9145.78 110561 140.742
57239.8 110561 140.742
83646.5 110561 140.742
120035 110534 140.674
132788 110561 140.742
9407.86 110971 140.695
29503.2 110990 140.742
57194.3 110990 140.742
83566.4 110990 140.742
120062 110990 140.742
132877 110941 140.62
9816.08 111419 140.742
57230.1 111419 140.742
83549 111419 140.742
120047 111419 140.742
120360 111288 140.416
132830 111322 140.5
132762 111419 140.742
10330.4 111848 140.742
28934 111848 140.742
29152.6 111433 140.742
57301.2 111848 140.742
120065 111848 140.742
10713.5 112172 140.742
28723.8 112109 140.742
83068.3 112161 140.454
83386.2 112277 140.742
120390 112175 140.489
120141 112277 140.742
132434 112213 140.584
11142.3 112564 140.742
27855.7 112705 140.742
28295 112400 140.742
57454.6 112653 140.742
83248.1 112705 140.742
120423 112637 140.572
120271 112705 140.742
132267 112705 140.742
11571.1 112906 140.742
27437.4 112952 140.742
27123.2 113134 140.742
57637.7 113134 140.742
83132.3 113134 140.742
120454 113098 140.651
11999.9 113169 140.742
12428.7 113377 140.742
12811.8 113563 140.742
26579.7 113358 140.742
57773 113452 140.466
57760.9 113563 140.742
82995.4 113563 140.742
120324 113563 140.742
132111 113563 140.742
13286.4 113811 140.742
13514.5 113992 140.742
25293.3 113952 140.742
25722.1 113643 140.742
82729.5 113992 140.742
120389 113890 140.487
132031 113992 140.742
14144 114287 140.742
24825.4 114382 140.645
58132.7 114421 140.742
82236.1 114331 140.517
120360 114290 140.415
120174 114421 140.742
132013 114364 140.602
14572.8 114545 140.742
15001.6 114753 140.742
23977.9 114849 140.742
24435.6 114656 140.742
82185.8 114849 140.742
120346 114705 140.381
132004 114785 140.58
15859.3 115037 140.742
16288.1 115098 140.742
16716.9 115161 140.742
20019.2 115278 140.742
20576.3 115081 140.742
21005.1 115021 140.742
21433.9 115092 140.742
21862.7 115173 140.742
22291.6 115185 140.742
22720.4 115150 140.742
23149.2 115075 140.742
23578 114959 140.742
81995.4 115278 140.742
132053 115278 140.742
17574.6 115451 140.742
17877.2 115581 140.427
18003.4 115536 140.742
18432.2 115528 140.742
18861 115472 140.742
19289.8 115415 140.742
19718.6 115359 140.742
132030 115707 140.742
81928.8 116136 140.742
120153 116136 140.742
131947 116136 140.742
82262.1 116565 140.742
131790 116565 140.742
58500.4 116994 140.742
120077 116994 140.742
131640 116856 140.742
58722.4 117404 140.696
120034 117422 140.742
131345 117422 140.742
58961.2 117851 140.742
82847.6 117851 140.742
120009 117851 140.742
131178 117851 140.742
82776.8 118280 140.742
119991 118209 140.565
131106 118174 140.478
131047 118280 140.742
59383.4 118709 140.742
82524.3 118709 140.742
119981 118627 140.539
59495.3 119138 140.742
82219.9 119138 140.742
120043 119138 140.742
130768 119123 140.706
59528.5 119496 140.567
120065 119566 140.742
59561.3 119958 140.649
81897.3 119605 140.742
81658.3 119995 140.742
120107 119995 140.742
130284 119926 140.569
59587 120412 140.713
59908 120305 140.444
81460.6 120424 140.742
120051 120413 140.714
130123 120424 140.742
59665.8 120853 140.742
60314.7 120711 140.388
81262.5 120853 140.742
119943 120853 140.742
129992 120853 140.742
60384.5 121210 140.563
81169.3 121282 140.742
120023 121282 140.742
129752 121282 140.742
60027.5 121372 140.742
60434 121711 140.742
60791.8 121617 140.509
80880.7 121552 140.345
81146 121711 140.742
120101 121711 140.742
129440 121654 140.601
60818.3 122072 140.575
60588.2 122139 140.742
61186.3 122012 140.423
81237.6 122139 140.742
120208 122139 140.742
60855.1 122538 140.667
61212.1 122466 140.488
73181.5 122429 140.394
74602.4 122563 140.73
75036.2 122349 140.742
75465 122222 140.742
75893.8 122228 140.742
76322.6 122369 140.742
120220 122568 140.742
129067 122215 140.742
60868.8 122981 140.701
61206.2 122889 140.473
73228.7 122905 140.512
73718.8 122966 140.665
76751.4 122646 140.742
77180.3 122950 140.742
81528.9 122996 140.741
120211 122997 140.742
128164 123029 140.725
128629 122636 140.743
60675.7 123426 140.742
61164.9 123277 140.37
68023.8 123275 140.364
73245 123350 140.553
77609.1 123239 140.742
77811.1 123426 140.742
120248 123426 140.742
127941 123445 140.732
60805.5 123775 140.543
67181.6 123719 140.403
67624.8 123733 140.439
68049.3 123729 140.428
68448 123699 140.353
72766.5 123729 140.428
73494.8 123855 140.742
78037.9 123726 140.742
81897.3 123653 140.742
120366 123855 140.742
66750.9 124146 140.398
67206.1 124172 140.464
67638.1 124175 140.472
68070.7 124179 140.481
68499.7 124179 140.482
68929.3 124180 140.484
69352.7 124175 140.47
69775.5 124169 140.455
70644.9 124180 140.485
71086.2 124193 140.516
71527.9 124206 140.548
71973.7 124223 140.591
72662.4 124283 140.742
72892.1 124215 140.742
78285.7 124283 140.742
82305.7 124257 140.728
127781 123897 140.743
127599 124283 140.742
60027.5 124601 140.742
60351.9 124608 140.481
66319 124571 140.39
66792.1 124616 140.501
67246.7 124641 140.565
67693.3 124659 140.61
68148.3 124685 140.675
68480.3 124712 140.742
69032.7 124563 140.742
69461.5 124550 140.742
69890.4 124552 140.742
70319.2 124541 140.742
70748 124507 140.742
71176.8 124474 140.742
71605.6 124441 140.742
78424.9 124670 140.638
82738 124741 140.804
120444 124665 140.625
127352 124606 140.742
59542.3 125141 140.742
59939 125053 140.521
66397.8 125079 140.587
66877.5 125141 140.742
67317.4 125006 140.742
82687.4 125076 140.565
120438 125088 140.61
126747 125141 140.742
59164 125564 140.728
59509.3 125481 140.519
65969.4 125508 140.588
78583.6 125570 140.742
83124.1 125545 140.637
120789 125570 140.742
126340 125416 140.358
126494 125342 140.742
126192 125570 140.742
58722.1 125980 140.695
59086.3 125915 140.533
65832.5 125999 140.742
78615.2 125999 140.742
83583.2 126014 140.682
125624 125986 140.712
53663.2 126650 140.735
53998 126401 140.677
53929.2 126454 140.895
54452.9 126122 140.742
54392.7 126367 140.592
54834.7 126381 140.625
55310.6 126320 140.742
57454.6 126395 140.742
57853.3 126397 140.667
58251.2 126366 140.59
58635.8 126322 140.479
65600.4 126426 140.738
78640.6 126428 140.742
125208 126277 140.742
124952 126428 140.742
53497 126758 140.497
54316.9 126720 140.402
54779.3 126754 140.486
55235 126781 140.553
55678.5 126795 140.59
56168.2 126565 140.742
56120.9 126809 140.624
56549.7 126809 140.624
56966.3 126797 140.594
57382.7 126784 140.563
57776.5 126749 140.475
58158.3 126702 140.357
65379.5 126856 140.742
78668.1 126856 140.742
84041.5 126470 140.743
83939.5 126754 140.488
122206 126738 140.742
124706 126784 140.561
53157.4 127285 140.742
53420.6 126856 140.742
55166.3 127141 140.382
55611.6 127157 140.423
56045.2 127162 140.435
56474.1 127162 140.435
56894.1 127153 140.413
65143.4 127285 140.742
78703 127285 140.742
84386.3 127201 140.533
122912 127134 140.364
123064 127064 140.742
123402 127195 140.517
123493 127113 140.742
123839 127203 140.537
123921 127076 140.742
124350 126902 140.742
64925.4 127714 140.742
78762.8 127714 140.742
84834.1 127649 140.58
53105.2 128143 140.742
64706.8 128143 140.742
78836.2 128143 140.742
85288.9 128104 140.645
52609.5 128444 140.422
53190.1 128572 140.742
64508.7 128572 140.742
78895.5 128472 140.742
85179.7 128424 140.372
85730.4 128545 140.677
53134.9 128969 140.663
79082 129000 140.742
85632.5 128876 140.432
86173.1 128988 140.711
53300.1 129429 140.742
64315.7 129001 140.742
64118.9 129429 140.742
86066.6 129310 140.445
86595.2 129410 140.695
53279.9 129858 140.742
63920.2 129858 140.742
79324.4 129553 140.742
79493.1 129858 140.742
86495.6 129739 140.446
87031.2 129846 140.713
53134 130254 140.661
63730.2 130287 140.742
86920.2 130164 140.435
87446 130261 140.678
79753.2 130326 140.742
87326.3 130570 140.378
87847.1 130662 140.608
53112.7 131145 140.742
63458.1 130840 140.742
63276.3 131145 140.742
80182 130843 140.742
80440.1 131145 140.742
87730.8 130975 140.318
88329.6 130878 140.742
88256.9 131072 140.561
53106.7 131573 140.742
63002.2 131573 140.742
80610.8 131353 140.742
80793.8 131573 140.742
88758.4 131186 140.742
88644.3 131459 140.457
89187.2 131440 140.742
53113.5 132002 140.742
62679.8 132002 140.742
81211.3 132002 140.742
89031.8 131847 140.354
89533.1 131919 140.535
90044.8 131882 140.742
62344.3 132431 140.742
81639.3 132431 140.742
90377.7 132335 140.503
90829.6 132358 140.56
91270.4 132371 140.597
91794.1 132357 140.77
53166.5 132438 140.742
53271 132860 140.742
62171.6 132640 140.742
61967.3 132860 140.742
81897.3 132697 140.742
91184 132711 140.371
91696.5 132733 140.448
92099.6 132632 140.75
92124.4 132805 140.57
92338 132948 140.8
53095.2 133217 140.564
53376.8 133289 140.742
61528.9 133289 140.742
82466.4 133289 140.742
92119.2 133219 140.626
53473.8 133717 140.742
61314 133495 140.742
61074.6 133717 140.742
82924.1 133717 140.742
83183.7 133951 140.742
83405 134146 140.742
53595.3 134198 140.742
53551.6 134531 140.633
60456.4 134298 140.742
83612.5 134314 140.742
92118 134504 140.557
92177.7 134131 140.71
53490 134898 140.479
59598.7 134910 140.742
84041.4 134617 140.742
84638.2 135004 140.742
91600.1 135004 140.742
92045.6 134863 140.393
54024.1 135129 140.742
53967.2 135376 140.6
59042.3 135305 140.423
59169.9 135222 140.742
84899 135171 140.742
85310.6 135416 140.699
91668 135341 140.512
53882.6 135720 140.389
54425.5 135834 140.674
58038.4 135862 140.742
58741.1 135492 140.742
85756.6 135629 140.742
86173.9 135850 140.713
91215.1 135862 140.742
91617 135718 140.385
54330.8 136168 140.437
54845.5 136254 140.652
56988.8 136253 140.65
57364.1 136200 140.516
57454.6 136074 140.742
86614.3 136033 140.742
87043.1 136227 140.742
90902.5 136184 140.742
91233.1 136192 140.497
55310.6 136331 140.742
55198.1 136607 140.461
55639.4 136619 140.492
56168.2 136385 140.742
87900.7 136570 140.742
88329.6 136661 140.742
90027.9 136702 140.7
90409 136655 140.581
90473.6 136460 140.742
90789.4 136606 140.46
89032.4 136993 140.355
89616 136756 140.742
21573.8 92293.6 141.171
22034.2 92102.3 141.171
22463.1 92023.7 141.171
22891.9 92022.4 141.171
23320.7 92022.5 141.171
23749.5 92067 141.171
24178.3 92161 141.171
24548.7 92293.6 141.171
19882.1 92714.4 141.151
20319 92595.6 141.171
20747.8 92530.8 141.171
21176.6 92439.7 141.171
25036 92494.8 141.171
25464.8 92710.8 141.171
17872.6 93151.3 141.171
18174.9 93075.1 141.171
18603.7 92977.7 141.171
19032.5 92898.2 141.171
19461.3 92820 141.171
25893.6 92965.9 141.171
26480.4 93151.3 141.171
17317.2 93364.3 141.171
26751.2 93258.4 141.171
27180.1 93410.7 141.171
16459.6 93979.7 141.171
16888.4 93628 141.171
28037.7 93842 141.171
27942 93913.2 140.932
15728.4 94437.7 141.171
16030.8 94272.8 141.171
28466.5 94143 141.171
28343.1 94314.3 140.863
15173.1 94743.7 141.171
28817.4 94788.5 140.976
14486.5 95295.4 141.171
14744.3 95050.3 141.171
29281.8 95253.1 141.065
14133.5 95724.2 141.171
29191.5 95591.5 140.84
29753 95459.3 141.171
29662.7 95633.9 140.945
30160.5 95702.9 141.118
69943.9 95606.1 140.876
70355.6 95589.1 140.833
121091 95710.6 141.171
121406 95724.2 141.171
13836.5 96153 141.171
30530.6 96072.9 140.971
68736.7 96153 141.171
69204.3 95986.4 141.171
69633.1 95933.5 141.171
70061.9 95910 141.171
70490.7 95913.9 141.171
70919.5 95932.5 141.171
71348.4 95914.4 141.171
71777.2 95868 141.171
72206 95857.3 141.171
72634.8 95958.2 141.171
73063.6 96138.2 141.171
120181 96100.7 141.04
120662 95799.7 141.171
120547 96037.4 140.882
121810 96014.3 140.824
122378 95906.1 141.171
122287 96062.4 140.945
122788 96134.9 141.126
13556.8 96581.8 141.171
31022.5 96564.8 141.129
68346.6 96352.3 141.171
73492.5 96351.6 141.171
118024 96516.5 141.008
118518 96306 141.171
118947 96258.6 141.171
119376 96234 141.171
119805 96168.3 141.171
123181 96527.7 141.036
13177.5 97010.6 141.171
31235.1 97010.6 141.171
67405.9 97010.6 141.171
67917.8 96610.8 141.171
74350.1 96806.5 141.171
117158 97010.6 141.171
117661 96639.4 141.171
117522 96871.9 140.825
123612 96958.8 141.042
12577.7 97439.4 141.171
67099.3 97439.4 141.171
74778.9 97111.2 141.171
117092 97299.7 140.822
124093 97297.9 141.171
12034.5 97868.3 141.171
28309.2 97711 140.778
31523.3 97868.3 141.171
66817.2 97868.3 141.171
75207.7 97449.6 141.171
75516.6 97868.3 141.171
116892 97868.3 141.171
124522 97493.8 141.171
125379 97547.1 141.171
125808 97614.8 141.171
125668 97727.7 140.82
126237 97813 141.171
28354.9 98185.4 140.892
28796.1 98197.8 140.923
29208.4 98181.3 140.882
29613.8 98157.8 140.823
30899.9 98157.5 140.822
31554.5 98297.1 141.171
66454.8 98297.1 141.171
66631.4 98106.3 141.171
75741.7 98297.1 141.171
117035 98297.1 141.171
126666 98035.9 141.171
28375.8 98635.2 140.944
28824.1 98654.6 140.993
29253.1 98654.8 140.994
29669.6 98642.4 140.963
30079.4 98623.4 140.915
30502.3 98617.6 140.9
30954.9 98641.4 140.96
65916.5 98725.9 141.171
66202.6 98493.5 141.171
117232 98636.3 141.171
127095 98322.1 141.171
127524 98685.5 141.171
10860.6 99130.2 141.11
11313.8 98781.4 141.171
28374.1 99062.2 140.94
28845.4 99104.8 141.046
29289.5 99120 141.085
29716.4 99118.1 141.08
30140 99112.9 141.067
30565 99109 141.057
65547 99154.7 141.171
76065.4 98836.5 141.171
76504 99154.7 141.171
117661 99082 141.171
10456.2 99376.5 141.171
