ply
format ascii 1.0
element vertex 1939
property float x
property float y
property float z
element face 0
property list uchar int vertex_indices
end_header
4.17931 34.9446 32.1311
3.75049 35.8022 32.0376
3.75049 37.0887 31.9526
3.75049 38.3751 32.4733
3.32167 39.6616 33.2032
3.32167 40.5192 33.5583
3.32167 41.4538 33.8983
2.89285 42.6633 34.2241
2.89285 43.5209 34.3999
2.89285 44.3786 34.5042
2.89285 45.2362 34.8031
2.03521 47.3803 37.6665
1.60639 48.6668 38.383
1.17758 49.5244 38.6152
1.17758 49.9532 38.632
1.17758 50.8109 38.4014
1.60639 52.3446 38.6153
1.60639 52.9549 38.8538
1.17758 54.2414 39.1362
1.17758 55.099 39.2203
1.17758 55.9567 39.3088
1.17758 56.3855 39.3168
1.17758 57.2431 39.226
1.17758 58.1008 38.8543
1.60639 59.3872 38.8637
1.17758 60.2449 39.1702
1.17758 61.1025 39.3463
1.17758 61.9601 39.3716
1.17758 62.389 39.3438
1.17758 63.2466 39.2574
1.17758 64.1042 39.1557
1.17758 64.9619 39.0096
1.17758 65.8195 38.7535
1.60639 66.6771 38.3663
2.03521 67.5228 37.7577
1.60639 68.3924 37.597
1.60639 69.25 37.713
1.60639 69.6788 37.6894
1.60639 70.5365 37.5116
1.60639 71.3941 37.234
2.03521 72.2518 36.9265
2.03521 72.6806 36.7877
2.46403 73.4396 36.4712
2.03521 74.3959 36.1409
2.89285 75.2535 35.6484
2.46403 75.6823 35.4407
2.89285 76.5865 34.3271
2.89285 76.9688 34.1535
2.89285 77.8264 34.0311
3.75049 78.4155 33.4695
3.75049 79.1128 32.8753
3.75049 79.9267 32.1831
3.75049 80.3993 31.8014
4.60812 80.9678 30.8966
4.69946 81.6858 30.039
5.03694 82.1146 29.3239
5.46576 82.7981 28.3237
5.89458 83.401 27.3832
5.89458 83.8299 26.8196
6.75221 84.0641 25.7508
7.18103 84.2262 24.0355
7.18103 85.1163 23.5455
7.60985 85.622 22.7491
8.03867 85.974 21.7585
8.8963 86.1965 20.1762
9.32512 86.584 18.0321
11.0404 85.5451 14.1951
11.4692 85.9129 12.8862
-6.37432 -10.5101 56.6257
-6.45926 -9.6525 56.6257
-6.43273 -9.22369 56.6257
-6.23376 -8.36605 56.6257
-6.11233 -7.50842 56.2731
-6.11233 -7.0796 56.0137
-6.11233 -6.22196 55.5728
-4.82588 -7.26604 51.4799
-5.68351 -4.50669 55.0824
-5.87957 -4.07787 54.4816
-5.25469 -3.22023 54.0984
-5.25469 -2.79141 53.4391
-4.82588 -2.17461 52.7663
-4.39706 -1.70046 51.9087
-3.96824 -1.24742 51.0511
-3.53942 -0.707704 49.7646
-3.1106 -0.322598 48.4781
-2.68178 0.0336386 47.6205
-2.25296 0.338449 46.3341
-2.25296 0.732673 45.0476
-1.39533 1.1286 43.7612
-0.966514 1.56014 42.4747
-0.537695 2.02281 41.1882
-0.108876 2.35549 40.3306
0.319943 2.87635 39.0442
0.748762 3.14886 38.1865
1.17758 3.80223 36.9001
1.78305 4.06968 36.0424
1.60639 4.92731 35.3878
2.09723 5.35613 34.3271
2.59223 5.78495 33.0407
9.32512 0.639132 17.7426
8.03867 3.01834 20.605
7.18103 4.37777 22.3202
6.75221 6.05447 23.6067
5.89458 7.50022 25.0176
5.46576 8.59824 25.7508
5.89458 9.64431 26.3469
5.46576 10.5019 26.6654
5.46576 11.7884 27.2244
5.03694 12.646 27.5741
4.60812 13.9325 28.3347
4.17933 15.2189 29.1813
4.17931 16.0766 29.2092
4.17931 16.5054 29.1402
4.17931 18.0573 29.6102
3.75049 19.0783 30.6021
3.75049 19.9359 30.8247
3.75049 21.2224 31.0171
3.75049 22.08 31.406
3.75049 22.9377 31.5731
3.75049 23.3665 31.5754
3.75049 24.6529 31.6054
3.5124 25.9394 31.7542
3.75049 26.3682 31.7623
3.32167 27.6547 31.6627
2.89285 28.9411 32.8429
2.89285 29.7067 33.0407
2.89285 30.6564 33.1147
3.15569 31.514 33.0407
3.27323 32.3717 32.6119
3.32167 32.8005 32.3422
3.126 33.2293 32.1831
2.89285 34.9446 32.3194
2.89285 35.3734 32.2916
3.32167 35.8022 32.151
2.89285 37.5175 32.409
2.89285 38.3751 32.7764
2.46403 39.6616 33.3109
2.46403 40.5192 33.7091
2.46403 41.3769 34.0108
2.46403 42.6633 34.2062
2.03521 43.5209 34.4298
2.03521 44.3786 34.6688
2.03521 45.2362 34.882
1.91965 46.5227 35.1848
1.17758 48.4671 38.1865
0.748762 49.5111 38.6153
0.319943 50.382 38.7178
0.319943 50.8109 38.6068
0.748762 52.0973 38.2728
0.748762 53.036 38.6153
0.748762 53.8126 38.8939
0.603629 55.099 39.0442
0.748762 55.9567 39.2016
0.748762 56.3855 39.2177
0.633955 57.2431 39.0442
0.748762 58.1008 38.6808
0.748762 59.2372 38.6153
0.748762 60.23 39.0442
0.748762 61.1025 39.2355
0.748762 61.9601 39.2524
0.748762 62.389 39.2445
0.748762 63.2466 39.1941
0.748762 64.1121 39.0442
0.748762 64.9619 38.8355
0.795779 65.8195 38.6153
0.748762 66.6771 38.0293
1.17758 67.1059 37.9095
0.748762 68.3924 37.6442
0.748762 69.25 37.8085
0.748762 69.6788 37.76
0.748762 70.5365 37.5633
1.17758 71.3941 37.2621
1.17758 72.2518 36.9922
1.17758 73.1094 36.6806
1.60639 73.6093 36.4712
1.60639 74.3959 36.1664
1.60639 75.2535 35.7992
2.03521 75.6823 35.5246
2.46403 76.2487 34.756
2.46403 76.9688 34.2234
2.46403 77.8264 34.1091
2.89285 78.684 33.4844
3.10384 79.1128 33.0407
3.32167 79.9705 32.2338
3.32167 80.5126 31.7542
3.75049 81.2569 30.8306
3.75049 81.6858 30.3153
4.17931 82.1146 29.6552
4.60812 82.6081 28.7525
5.03694 83.2174 27.8949
5.09335 83.8299 27.0372
5.46576 84.2587 26.3089
6.75221 84.4591 24.0355
6.75221 85.148 23.6067
6.75221 85.6809 23.1779
7.60985 86.0773 21.8914
8.03867 86.4028 20.662
8.8963 86.6022 18.8897
8.94281 86.8316 17.1744
11.0404 85.8965 12.8862
11.4692 86.2222 11.171
-6.67864 -9.22369 55.7681
-6.60903 -8.36605 55.7681
-6.54115 -7.93724 55.7075
-6.55424 -7.50842 55.3392
-6.45063 -6.22196 54.9104
-6.25823 -5.36432 54.9104
-6.13306 -4.50669 54.4816
-6.32105 -4.50669 54.0528
-6.00561 -3.64905 53.624
-5.68351 -2.79141 52.8664
-5.25469 -2.24661 52.3375
-5.25469 -1.96548 51.4799
-4.82588 -1.38998 50.6222
-4.39706 -0.910193 49.7646
-3.96824 -0.449923 48.4781
-3.53942 -0.044088 47.1917
-2.68178 0.476662 45.9052
-2.68178 0.744584 45.0476
-1.82415 1.2418 43.7612
-1.82415 1.54944 42.9035
-0.966514 1.92558 41.6639
-0.537695 2.44696 40.3306
-0.108876 2.80111 39.473
0.319943 3.36222 38.1865
0.319943 3.909 37.3289
0.710653 4.4985 36.4712
0.748762 4.92731 35.9475
1.17758 5.45107 35.1848
1.60639 6.23413 33.8983
2.08976 6.64258 33.0407
2.15997 7.0714 32.6119
2.61246 7.50022 31.3254
2.89285 7.99844 30.4678
3.21068 9.21549 29.6102
3.40574 9.21549 29.1813
3.75049 10.5019 28.4042
3.75049 10.9308 28.4174
3.75049 12.2172 28.4132
3.75049 13.0749 28.3479
3.75049 13.9325 28.4668
3.32167 15.4203 29.6102
3.32167 16.0766 29.8694
3.32167 16.5054 29.7704
3.75049 17.7919 29.443
3.32167 19.0783 30.6507
2.89285 19.9359 30.9434
3.32167 21.2224 31.0456
2.89285 22.08 31.3922
2.46403 22.9377 31.5906
2.46403 23.3665 31.592
2.89285 24.6529 31.6066
2.89285 25.5106 31.7185
2.46403 26.797 31.7415
2.03521 28.0835 32.7491
2.03521 28.9411 33.0246
2.34237 29.7988 33.0407
2.46403 30.6564 32.8114
2.46403 31.0852 32.5299
2.70042 31.9429 32.1831
2.84904 32.3717 32.1831
2.46403 33.6581 32.1704
2.46403 34.9446 32.3931
2.46403 35.3734 32.3518
2.46403 36.2698 32.1831
2.03521 37.5375 32.6119
2.03521 38.5837 33.0407
2.03521 39.6616 33.4165
1.60639 40.5192 33.8528
1.60639 41.8057 34.203
1.60639 42.6633 34.3648
1.60639 43.5209 34.4746
1.17758 44.5098 34.756
1.60639 45.2362 34.8755
1.60639 46.5227 34.9908
1.34886 47.3803 35.6136
-0.108876 49.6405 38.6153
-0.108876 50.382 38.7739
-0.108876 50.9532 38.6153
-0.108876 51.6685 38.2815
0.319943 52.9549 38.3199
-0.226213 53.8126 38.6153
-0.108876 55.099 38.8619
-0.430345 55.9567 39.0442
-0.470997 56.3855 39.0442
-0.108876 57.2431 38.8622
-0.108876 57.8131 38.6153
0.319943 58.5296 38.4159
-0.108876 60.2449 38.7174
-0.108876 61.1025 38.8591
-0.108876 61.9601 38.8788
-0.108876 62.389 38.8629
-0.108876 63.2466 38.7681
0.253974 64.533 38.6153
-0.108876 64.9619 38.4228
0.319943 65.8195 38.2346
-0.108876 66.2483 38.0483
0.319943 67.1059 37.5759
0.319943 68.3924 37.6789
0.319943 69.25 37.8538
0.319943 69.9102 37.7577
0.319943 70.5365 37.6006
0.748762 71.2831 37.3289
0.319943 72.2518 37.0501
0.748762 73.1094 36.71
0.748762 73.5382 36.5576
0.748762 74.3959 36.232
0.748762 75.2535 35.8215
1.60639 76.0311 35.1848
1.60639 76.3261 34.756
1.60639 76.9688 34.3113
1.60639 77.8264 34.2145
1.60639 78.684 33.7125
2.46403 79.3223 33.0407
2.46403 79.774 32.6119
2.46403 80.3993 31.9885
3.32167 81.2569 30.936
2.89285 81.6858 30.4953
3.32167 82.4489 29.6102
4.17931 82.7181 28.7525
4.17931 83.401 27.9005
4.60812 83.8299 27.2435
5.03694 84.4093 26.1796
5.46576 84.5156 24.4643
5.89458 84.9507 23.6067
6.3234 85.9804 22.7491
6.75221 86.1851 22.3202
7.18103 86.5612 21.0338
7.18103 86.9876 19.7473
8.03867 87.1314 18.0321
9.32512 86.8316 14.8562
11.0404 86.2663 11.5998
11.4692 86.191 9.02688
-6.42458 -6.65078 53.624
-6.57546 -5.79314 54.0528
-6.54115 -4.9355 53.8122
-6.43364 -4.50669 53.624
-6.29951 -3.64905 52.7663
-6.06271 -3.22023 52.7663
-5.98295 -2.79141 51.4799
-5.25469 -1.68232 50.6222
-5.25469 -1.50496 49.9717
-4.90552 -1.07614 49.3358
-4.39706 -0.599127 48.4781
-3.96824 -0.13616 47.1917
-3.53942 0.275157 45.9052
-3.19556 0.639132 45.0476
-2.68178 1.19899 43.7612
-2.25296 1.58344 42.4747
-1.82415 2.07985 41.6171
-1.82415 2.49359 40.7594
-0.966514 2.96121 39.473
-0.537695 3.47104 38.6153
-0.537695 4.06968 37.5649
-0.322049 4.4985 36.9001
0.319943 5.05588 36.0424
0.453888 5.78495 35.1848
0.748762 6.21377 34.583
1.60639 6.64258 33.5161
1.60639 7.50022 32.8121
1.60639 7.92904 32.5222
2.09654 8.78667 31.3254
1.84256 9.21549 31.3254
2.33851 10.0731 30.4678
2.46403 10.5019 30.2267
2.36482 11.3596 30.039
2.57546 12.2172 29.6102
2.89285 13.0749 29.0972
2.89285 13.5037 28.9869
2.89285 15.337 29.6102
2.75016 16.5054 30.039
2.89285 16.9342 29.7984
2.46403 18.2207 30.0354
2.46403 19.0783 30.7002
2.03521 20.3648 30.9726
2.03521 21.2224 31.0595
2.03521 22.08 31.4398
2.03521 22.9377 31.5613
2.03521 23.3665 31.5641
2.03521 24.6529 31.498
2.03521 25.5106 31.6021
1.60639 26.9543 32.1831
1.60639 28.0835 32.8527
1.60639 28.5123 32.9543
1.42429 29.3699 32.6119
1.95398 30.2276 32.6119
2.03521 30.8392 32.1831
2.03521 31.9429 31.7687
1.60639 32.8005 31.9171
2.03521 33.6581 32.1191
2.03521 34.9446 32.4048
1.60639 35.8022 32.4717
1.60639 36.231 32.4358
1.60639 37.5175 32.5967
1.17758 38.804 33.177
1.17758 39.6616 33.6131
1.31887 40.5192 33.8983
0.748762 41.808 34.3271
0.748762 42.6633 34.465
0.748762 43.5209 34.5371
0.748762 44.3786 34.7115
0.748762 45.2362 34.8337
0.319943 46.5227 35.0934
0.748762 47.3803 35.2389
-0.966514 49.5244 38.6683
-0.966514 50.382 38.8521
-0.966514 50.8109 38.7479
-0.966514 51.6685 38.3694
-0.966514 52.9549 38.5693
-0.966514 54.2414 39.0724
-0.966514 55.099 39.2164
-1.39533 55.9567 39.3696
-1.39533 56.8143 39.3964
-1.39533 57.2431 39.3704
-0.966514 58.1008 38.8576
-0.906014 58.9584 38.6153
-1.22685 60.2449 39.0442
-0.84848 61.1025 39.0442
-0.966514 61.9601 39.1704
-0.966514 62.8178 39.1188
-1.09773 63.6754 39.0442
-0.966514 64.1042 38.9528
-0.966514 64.9619 38.7786
-0.966348 65.8195 38.6153
-0.537695 66.6771 38.0167
-0.583753 67.1059 37.7577
-0.108876 68.5046 37.7577
-0.537695 69.25 37.903
-0.537695 69.6788 37.8577
-0.537695 70.5365 37.6384
-0.108876 71.4781 37.3289
-0.108876 72.2518 37.0716
-0.108876 72.729 36.9001
0.319943 73.5382 36.5688
0.319943 74.3959 36.2193
0.319943 75.2535 35.8085
0.748762 76.0799 35.1848
0.748762 76.3922 34.756
0.748762 76.9688 34.3592
0.748762 77.8264 34.274
1.17758 78.684 33.7623
1.17758 79.5813 33.0407
1.60639 79.9678 32.6119
2.03521 80.8281 31.6854
2.46403 81.0668 31.3254
2.46403 81.804 30.4678
2.92799 82.5434 29.6102
2.90893 82.9722 29.1813
3.32167 83.3811 28.3237
3.75049 83.9455 27.4661
4.17931 84.5184 26.6084
4.60812 84.6875 25.0242
4.78481 85.5451 24.0355
5.89458 85.7673 22.7491
5.89458 86.2306 21.8914
6.3234 86.7939 21.0338
6.3234 87.1063 20.1762
7.18103 87.3329 18.4609
8.8963 86.8316 15.1909
8.8963 87.4132 14.1727
11.0404 86.4618 9.88452
-6.42208 -5.79314 51.9087
-6.61491 -4.50669 52.3375
-6.54115 -4.14835 51.9087
-6.37979 -3.64905 51.4799
-6.07915 -2.79141 50.6222
-5.92772 -2.3626 50.1934
-5.71249 -1.93378 49.3358
-5.25469 -1.35179 48.4781
-4.74105 -0.647325 47.6205
-4.39706 -0.159822 46.3341
-3.99215 0.210313 45.4764
-3.53942 0.753229 44.6188
-3.53942 1.02371 43.7612
-2.68178 1.49677 42.5297
-2.25296 2.25338 41.1882
-1.82415 2.63266 40.3306
-1.82415 2.86464 39.473
-1.39533 3.36056 38.6153
-1.39533 3.90365 37.7577
-0.966514 4.4985 37.0538
-0.537695 5.38012 36.0424
-0.364139 5.78495 35.6136
0.319943 6.21377 34.9016
-0.0817955 7.0714 34.3271
0.319943 7.50022 33.584
0.748762 8.46576 32.6119
0.748762 8.78667 32.3899
1.17758 9.64431 31.5085
1.60639 10.0731 31.0872
1.2991 10.9308 30.8966
1.60639 11.7884 30.3811
1.60639 12.646 30.1071
2.03521 13.0749 29.7516
2.03521 13.9325 29.401
2.03521 15.2189 29.6257
1.60639 16.5054 30.3187
1.60639 16.9342 30.2702
1.60639 18.2207 30.1375
1.60639 19.0783 30.6776
1.60639 20.3648 30.9959
1.60639 21.2224 31.0921
1.60639 22.08 31.4392
1.60639 22.9377 31.5721
1.60639 23.3665 31.5682
1.60639 24.2241 31.467
1.17758 25.9394 31.7908
0.748762 26.797 32.4768
1.17758 28.0835 32.8737
1.17758 28.5123 32.8645
1.17758 29.3699 32.2922
1.43617 29.7988 32.1831
1.60639 31.0852 31.7053
1.17758 31.9429 31.8381
1.17758 32.8005 32.0501
1.17758 33.2293 32.1339
0.748762 34.9446 32.3711
0.748762 35.8022 32.558
0.748762 36.231 32.5765
1.17758 37.5175 32.6137
0.748762 38.804 33.1969
0.319943 39.6616 33.6439
0.319943 40.5192 33.9596
-0.108876 41.8057 34.4872
-0.108876 42.6633 34.5332
-0.108876 43.5209 34.6167
0.319943 44.4878 34.756
-0.108876 45.665 34.9924
-0.108876 46.5227 35.1062
-0.0392133 47.3803 35.1848
-1.82415 49.5244 38.7602
-1.39533 49.9532 38.8172
-1.39533 50.8109 38.6793
-1.39533 52.0973 38.3997
-1.82415 53.3838 39.0806
-1.82415 54.2414 39.2191
-1.39533 55.099 39.2987
-1.82415 55.9567 39.3672
-1.82415 56.8143 39.4124
-1.82415 57.2431 39.4004
-1.82415 58.1008 39.1726
-1.82415 59.3872 38.8829
-1.82415 60.2449 39.2009
-1.82415 61.1025 39.3254
-1.82415 61.5313 39.3306
-1.82415 62.389 39.3027
-1.82415 63.2466 39.2205
-1.82415 64.1042 39.0926
-1.82415 64.9619 38.9575
-1.82415 65.8195 38.8004
-1.39533 66.6771 38.4441
-0.966514 67.1059 37.95
-0.966514 68.3924 37.7851
-1.39533 69.25 37.916
-0.966514 69.6788 37.8565
-0.966514 70.5365 37.6363
-0.966514 71.5539 37.3289
-0.966514 72.2518 37.087
-0.966514 72.7374 36.9001
-0.966514 73.5382 36.5674
-0.537695 74.3959 36.196
-0.537695 75.2535 35.8066
-0.108876 76.1111 35.1394
-0.108876 76.435 34.756
0.319943 76.9688 34.3784
0.319943 77.8264 34.2925
0.176867 78.684 33.8983
0.748762 79.5736 33.0407
1.17758 79.9705 32.6894
1.60639 80.8281 31.8027
1.17758 81.3752 31.3254
2.03521 81.6858 30.737
2.46403 82.5486 29.6102
2.46403 83.0372 29.1813
2.89285 83.4896 28.3237
3.32167 84.0661 27.4661
3.32167 84.6875 26.5697
4.17931 84.7705 25.322
3.75049 85.5451 24.7649
4.17931 86.13 24.0355
4.79007 86.4028 22.7491
5.89458 86.632 21.0338
6.3234 87.2384 19.7473
6.3234 87.4545 18.8897
8.03867 86.9847 15.4592
8.03867 87.6892 14.4426
8.46749 87.8351 13.3151
10.6116 86.6713 8.16924
-6.29139 -4.50669 49.7646
-6.27603 -3.64905 49.7646
-6.20659 -3.22023 49.3358
-6.10366 -2.79141 49.3358
-5.93473 -2.3626 48.4781
-5.45009 -1.50496 47.6205
-5.20078 -1.07614 46.7629
-4.82588 -0.391615 45.9052
-4.82588 -0.218506 44.9911
-4.39706 0.352072 44.19
-3.96824 0.952766 43.3323
-3.53942 1.39463 42.4747
-3.15367 1.92558 41.1882
-2.80926 2.3544 40.3306
-2.68178 2.78322 39.2712
-1.82415 3.48709 38.1865
-1.39533 4.06968 37.527
-1.82415 4.4985 36.9298
-1.39533 5.35613 36.1924
-0.966514 5.91296 35.6136
-0.537695 6.33453 35.1848
-0.537695 7.21043 34.3271
-0.537695 7.65711 33.8983
-0.0516544 8.35785 33.0407
0.466719 9.21549 32.1831
0.319943 9.64431 31.9405
0.748762 10.5019 31.3083
0.748762 10.9308 31.1107
0.748762 11.7884 30.7291
1.17758 12.646 30.2349
1.32544 13.0749 30.039
1.17758 13.9325 29.7385
1.17758 15.2189 29.685
1.17758 16.5054 30.4275
1.17758 16.9342 30.3888
1.17758 18.2207 30.1692
1.17758 19.0783 30.6521
0.748762 20.3648 31.0235
0.748762 21.2224 31.1673
0.748762 22.08 31.4465
0.748762 22.5089 31.525
0.748762 23.3665 31.478
0.748762 24.2241 31.329
0.319943 26.0112 32.1831
-0.108876 27.2259 32.7074
0.319943 27.6547 32.7283
0.319943 28.0835 32.6265
0.748762 28.9496 32.1831
0.748762 29.7988 31.542
0.748762 31.0852 31.6774
0.319943 31.9429 31.92
0.748762 33.1413 32.1831
0.319943 33.6581 32.2575
0.319943 34.9446 32.403
0.319943 35.8022 32.5594
0.319943 36.231 32.5726
-0.108876 37.5175 32.8141
-0.108876 38.804 33.3088
-0.537695 39.6616 33.7433
-0.537695 40.948 34.2344
-0.537695 41.8057 34.5318
-0.537695 42.6633 34.5735
-0.537695 43.5209 34.6204
-0.537695 44.4771 34.756
-0.537695 45.2362 34.8716
-0.537695 46.5227 35.0926
-2.25296 48.6668 38.3203
-2.25296 49.5244 38.729
-2.25296 49.9532 38.7036
-1.82415 50.6579 38.6153
-2.25296 52.1514 38.6153
-2.25296 53.1843 39.0442
-2.25296 54.2414 39.2037
-2.25296 55.099 39.2612
-2.25296 55.9567 39.3416
-2.25296 56.8143 39.3912
-2.25296 57.2431 39.4024
-2.68178 58.1008 39.2269
-2.25296 58.9584 38.905
-2.25296 60.2449 39.203
-2.25296 61.1025 39.3064
-2.25296 61.5313 39.3014
-2.25296 62.389 39.2798
-2.25296 63.2466 39.1988
-2.25296 64.1042 39.0864
-2.25296 64.9619 38.9321
-2.25296 65.8195 38.7835
-1.82415 66.6771 38.5172
-2.25296 67.1925 38.1865
-1.82415 68.1641 37.7577
-1.82415 69.25 37.8806
-1.82415 69.6788 37.8267
-1.82415 70.5365 37.6118
-1.82415 71.3941 37.3342
-1.39533 72.2518 37.0843
-1.39533 73.1094 36.7413
-1.39533 73.5382 36.5587
-0.966514 74.3959 36.2033
-0.966514 75.2535 35.8048
-0.966514 75.6823 35.5502
-0.537695 76.5399 34.6607
-0.537695 77.3976 34.3851
-0.537695 77.8268 34.3271
-0.108876 78.7153 33.8983
-0.108876 79.5417 33.1394
-0.108876 79.9705 32.734
0.319943 80.5912 32.1831
0.748762 81.3826 31.3254
1.17758 81.7744 30.8966
1.60639 82.3279 30.039
1.60639 82.9722 29.3297
1.60639 83.5036 28.7525
2.03521 84.0136 27.8949
2.46403 84.5436 27.0372
3.32167 84.9273 25.7508
3.46282 85.5451 24.8932
3.75049 86.2226 24.0355
4.17931 86.6015 23.1779
4.60812 87.0439 21.4626
5.46576 87.0235 19.7473
5.89458 87.4482 18.8897
6.1478 87.6892 17.1744
7.18103 87.6892 14.9223
7.60985 88.118 13.7046
8.46749 88.097 11.5998
-6.00236 -4.07787 47.1917
-6.07885 -3.22023 47.1917
-5.97152 -2.3626 47.1917
-5.83641 -1.93378 46.7629
-5.39046 -1.07614 45.4764
-5.18516 -0.647325 45.0476
-4.82588 -0.0390784 44.19
-4.70713 0.210313 43.7612
-4.39706 0.844963 42.9035
-3.96824 1.43518 42.0459
-3.53942 1.80608 41.1882
-3.14066 2.3544 39.9018
-2.68178 2.90626 39.0442
-2.68178 3.34708 38.1865
-2.23148 4.06968 37.3289
-2.25296 4.43101 36.9001
-1.98312 5.35613 36.0424
-1.39533 5.78495 35.8037
-1.39533 6.42475 35.1848
-1.39533 7.0714 34.6142
-0.966514 7.92904 33.782
-0.966514 8.35785 33.4196
-0.594002 9.21549 32.6119
-0.537695 9.75824 32.1831
-0.108876 10.5019 31.626
-0.108876 11.0307 31.3254
-0.0578526 11.7884 30.8966
0.319943 12.5102 30.4678
0.319943 13.5037 30.0823
0.319943 13.9325 29.9148
0.748762 15.2189 29.7046
0.748762 16.5054 30.4476
0.319943 16.8932 30.4678
0.319943 17.7919 30.2392
0.319943 19.0783 30.6457
0.319943 20.3648 31.0266
-0.108876 21.2224 31.2422
-0.108876 22.08 31.5047
-0.108876 22.5089 31.5446
0.319943 23.3665 31.4624
-0.108876 24.7529 31.3254
-0.537695 26.0474 32.1831
-0.537695 27.2259 32.7073
-0.537695 27.6547 32.7748
-0.537695 28.6361 32.6119
-0.366158 28.9411 32.1831
-0.440671 30.2276 31.7542
-0.204347 31.0852 31.7542
-0.537695 31.9429 31.9798
-0.108876 32.9594 32.1831
-0.537695 34.0869 32.3267
-0.537695 34.9446 32.509
-0.537695 35.5403 32.6119
-0.537695 36.6752 32.6119
-0.537695 37.5175 32.9174
-0.966514 38.804 33.3616
-0.966514 39.6616 33.7041
-0.966514 40.948 34.1875
-0.966514 41.8057 34.5096
-1.39533 42.6633 34.6223
-1.39533 43.5209 34.678
-1.39533 44.3786 34.7929
-1.39533 45.2362 34.8499
-1.39533 46.5227 35.109
-3.1106 48.6668 38.4584
-2.68178 49.5244 38.6118
-2.68178 49.9532 38.5187
-2.68178 50.8109 38.22
-3.1106 52.0973 38.6692
-2.68178 53.2288 39.0442
-3.1106 54.2414 39.1244
-3.1106 55.099 39.1943
-3.1106 55.9567 39.2754
-3.1106 56.8143 39.3547
-3.1106 57.2431 39.3694
-3.1106 58.1008 39.2195
-2.68178 58.9584 38.8836
-3.1106 60.2449 39.1293
-3.1106 61.1025 39.2491
-3.1106 61.5313 39.2351
-3.1106 62.389 39.1944
-3.1106 63.2466 39.1458
-2.68178 64.1042 39.052
-2.68178 64.9619 38.9182
-3.1106 65.8195 38.7774
-3.1106 66.6771 38.5634
-2.68178 67.5348 37.92
-2.25296 67.9636 37.7121
-2.25296 69.25 37.823
-2.25296 69.6788 37.7968
-2.25296 70.5365 37.5936
-2.25296 71.3941 37.3423
-2.25296 72.2518 37.0433
-1.82415 73.1094 36.7416
-1.82415 73.5382 36.5491
-1.82415 74.6104 36.0424
-1.39533 75.2535 35.7695
-1.82415 75.6823 35.4752
-0.966514 76.4064 34.756
-1.39533 77.3976 34.3953
-1.05338 77.8264 34.3271
-0.966514 78.684 33.9131
-0.537695 79.5417 33.0958
-0.537695 79.9705 32.7047
-0.108876 80.6482 32.1831
0.319943 81.2569 31.469
-0.108876 81.7519 30.8966
0.319943 82.558 30.039
1.17758 82.9722 29.3541
1.17758 83.5699 28.7525
1.17758 84.3018 27.8949
2.02035 84.6875 27.0372
2.03521 85.1163 25.8118
2.89285 85.5451 25.1272
2.89285 86.1568 24.4643
3.32167 86.7369 23.1779
3.32167 87.0637 22.3202
4.17931 87.4535 21.0338
5.46576 87.4874 18.4609
5.89458 87.597 16.7456
6.75221 87.7173 15.0303
6.75221 88.2734 14.1727
8.03867 88.2323 12.0286
8.46749 88.1393 9.4557
-5.95012 -3.64905 45.4764
-6.04994 -2.79141 45.4764
-5.96104 -2.3626 45.4764
-5.83856 -1.93378 45.0476
-5.59825 -1.07614 44.19
-5.43839 -0.647325 43.7612
-5.22124 -0.218506 42.9035
-4.76355 0.639132 42.4747
-4.82588 0.961086 41.1882
-3.96824 1.98545 40.3306
-3.96824 2.16069 39.9018
-3.59602 2.78322 38.6153
-3.11665 3.21204 38.1865
-3.1106 4.06968 36.9389
-2.68178 4.4985 36.5993
-2.25296 5.22048 36.0424
-2.25296 5.78495 35.5626
-1.82415 6.64258 34.9967
-2.25296 7.0714 34.5045
-1.82415 7.83184 33.8983
-1.39533 8.35785 33.5135
-1.39533 8.98126 33.0407
-0.966514 9.64431 32.4286
-0.966514 10.5904 31.7542
-0.537695 11.3596 31.2397
-0.537695 11.9618 30.8966
-0.108876 12.646 30.474
-0.537695 13.5037 30.2279
-0.301052 13.9325 30.039
-0.108876 15.2189 29.754
-0.108876 16.5054 30.4119
-0.108876 17.0991 30.4678
-0.108876 17.7919 30.2816
-0.108876 19.0783 30.6502
-0.537695 20.3648 31.0407
-0.537695 21.3895 31.3254
-0.966514 22.08 31.5334
-0.966514 22.5089 31.5894
-0.966514 23.3665 31.5088
-0.537695 24.6838 31.3254
-0.966514 25.9394 31.9993
-0.966514 27.2259 32.7068
-1.39533 28.0835 32.9176
-1.39533 28.9411 33.0055
-1.51932 29.3699 33.0407
-1.39533 30.2276 32.5291
-1.29047 30.6564 32.1831
-1.23899 31.9429 32.1831
-1.10349 32.8005 32.1831
-1.39533 34.0869 32.3951
-0.966514 34.9446 32.5335
-1.39533 35.8022 32.7341
-1.39533 36.231 32.7433
-1.39533 37.6528 33.0407
-1.82415 38.804 33.4951
-1.82415 39.6616 33.7834
-1.82415 40.948 34.2392
-2.25296 41.8057 34.5357
-2.25296 42.6633 34.6968
-2.25296 43.5209 34.8344
-2.25296 44.3786 34.926
-2.25296 45.665 35.0953
-3.60887 47.8091 38.1865
-3.53942 48.6668 38.4722
-3.53942 49.0956 38.4511
-3.1106 49.9532 38.3131
-3.53942 51.2397 38.297
-3.53942 52.0973 38.7264
-3.53942 53.3838 38.9961
-3.53942 54.2414 39.0696
-3.53942 55.099 39.1428
-3.53942 55.9567 39.2414
-3.53942 56.8143 39.3231
-3.53942 57.2431 39.3391
-3.53942 58.1008 39.1965
-3.53942 58.9584 38.8034
-3.53942 60.1602 39.0442
-3.53942 61.1025 39.2149
-3.53942 61.5313 39.2014
-3.53942 62.389 39.1671
-3.53942 63.2466 39.1065
-3.53942 64.1042 39.0006
-3.53942 64.9619 38.8766
-3.53942 65.8195 38.7449
-3.53942 66.4242 38.6153
-3.53942 67.2618 38.1865
-3.1106 68.3924 37.5941
-3.1106 69.25 37.6772
-3.1106 69.6788 37.6831
-3.1106 70.5365 37.5031
-3.1106 71.1415 37.3289
-2.68178 72.2518 37.0169
-2.68178 73.1094 36.6806
-2.68178 73.5382 36.494
-2.68178 74.3959 36.1457
-2.25296 75.2535 35.7381
-2.25296 75.6823 35.4584
-1.82415 76.3744 34.756
-1.82415 77.3976 34.4255
-1.82415 77.8907 34.3271
-1.82415 78.6596 33.8983
-1.56202 79.5417 33.0407
-1.08602 79.9705 32.6119
-0.537695 81.0381 31.7542
-0.537695 81.2569 31.5008
-0.537695 81.7985 30.8966
-0.537695 82.5434 30.2167
-0.108876 82.9722 29.6052
0.319943 83.8299 28.6252
0.748762 84.2587 28.0277
1.17758 84.6875 27.1862
1.17758 85.1163 26.1183
1.60639 85.7708 25.322
2.03521 86.2682 24.4643
2.46403 86.6958 23.6067
2.89285 87.1412 22.3202
3.75049 87.5658 21.0338
3.75049 87.9705 19.7473
4.60812 87.7931 17.6032
5.89458 88.118 14.9106
5.89458 88.3546 14.6015
6.86376 88.5469 12.8862
7.60985 88.5721 10.7422
20.3061 89.4737 -21.6662
20.413 90.2154 -21.8323
20.4749 90.6909 -21.9405
20.4763 91.5436 -22.1186
20.86 92.049 -22.6015
20.9066 92.8382 -22.8913
20.9032 94.1215 -23.4035
21.3337 94.1213 -23.7118
21.3068 94.9791 -23.9921
21.5596 95.8368 -24.8498
22.1897 96.0224 -26.1362
-5.55599 -4.07787 42.0459
-6.02192 -2.79141 43.7612
-6.02128 -2.3626 43.7612
-5.79902 -1.50496 43.3323
-5.68142 -1.07614 42.9035
-5.49936 -0.218506 42.0459
-5.25469 0.356481 41.6171
-4.82588 1.06795 40.8664
-4.82588 1.49677 39.9249
-4.39706 2.05485 39.473
-3.97698 2.78322 38.1865
-3.60676 3.21204 37.7577
-3.53942 3.64086 37.2055
-3.1106 4.4391 36.4712
-3.1106 4.92731 35.944
-2.68178 5.78495 35.3995
-2.68178 6.64258 34.6805
-2.72307 7.0714 34.3271
-2.25296 7.69431 33.8983
-2.25296 8.35785 33.3115
-1.82415 9.21549 32.8561
-1.82415 9.64431 32.5081
-1.39533 10.5019 31.8061
-0.966514 11.3596 31.259
-0.966514 11.7884 31.0099
-1.39533 12.646 30.6086
-0.966514 13.5037 30.2991
-0.966514 14.3613 29.952
-0.966514 15.2189 29.8276
-0.966514 16.5054 30.4473
-0.966514 16.9342 30.5444
-0.966514 17.7919 30.3167
-0.966514 19.0783 30.6188
-1.39533 20.3648 31.0543
-0.966514 21.2224 31.2401
-1.39533 22.08 31.54
-1.39533 22.9377 31.6179
-1.39533 23.3665 31.5685
-1.39533 24.2241 31.3635
-1.39533 25.9394 31.7965
-1.83105 26.797 32.1831
-1.82415 28.0835 32.9011
-1.82415 28.9411 33.1055
-2.25296 29.7988 33.237
-2.25296 30.6564 33.2685
-2.25296 31.0852 33.2538
-2.25296 31.9429 32.972
-1.82415 33.2293 32.4355
-1.82415 34.0869 32.4925
-1.82415 34.9446 32.6352
-1.82415 35.8022 32.7218
-1.82415 36.6599 32.728
-2.25296 37.9463 33.3042
-2.25296 38.804 33.5347
-2.68178 39.6616 33.9096
-2.68178 40.948 34.3541
-2.68178 41.8057 34.5164
-2.68178 42.6633 34.6839
-2.68178 43.5209 34.8629
-2.68178 44.3786 34.9621
-3.96378 46.5227 37.3289
-3.96824 47.8091 38.2449
-3.96824 48.238 38.3576
-4.10374 49.0956 38.1865
-4.39706 50.382 38.1389
-4.39706 51.2397 38.5102
-3.96824 52.0973 38.7646
-4.39706 52.9549 38.842
-4.39706 54.2414 38.9638
-4.39706 55.099 39.0894
-4.39706 55.9567 39.2121
-4.39706 56.8143 39.2665
-4.39706 57.2431 39.2754
-4.39706 58.1008 39.108
-3.96824 58.9584 38.7492
-4.39706 60.2449 38.9255
-4.39706 61.1025 39.1053
-4.39706 61.5313 39.1084
-4.39706 62.389 39.0796
-4.39706 63.2466 39.0117
-4.39706 64.1042 38.8985
-4.39706 64.9619 38.7772
-3.96824 65.8195 38.6961
-3.96824 66.6771 38.4774
-4.39706 67.1622 38.1865
-3.53942 67.9636 37.5908
-3.53942 69.25 37.5857
-3.53942 69.6788 37.6063
-3.53942 70.5365 37.4537
-3.53942 71.3941 37.2051
-3.53942 72.2918 36.9001
-3.53942 72.6806 36.7657
-3.53942 73.4722 36.4712
-3.1106 74.3959 36.1195
-3.1106 75.3946 35.6136
-2.68178 75.6823 35.4485
-2.68178 76.4213 34.756
-2.25296 77.3976 34.4406
-2.25296 77.9141 34.3271
-2.68178 78.684 33.8842
-1.82415 79.5219 33.0407
-1.72186 79.9705 32.6119
-1.36919 80.8281 31.7542
-1.39533 81.2569 31.4018
-0.966514 81.8959 30.8966
-0.966514 82.5434 30.2345
-0.537695 83.0624 29.6102
-0.108876 83.751 28.7525
-0.108876 84.2587 28.2082
0.319943 84.6875 27.1324
0.748762 85.4698 25.7508
1.17758 85.974 25.2721
1.17758 86.3917 24.4643
1.60639 86.7479 23.6067
2.03521 87.2604 22.3965
2.46403 87.6586 21.0338
2.89285 87.983 20.1762
3.32167 88.3032 18.8897
5.03694 88.118 15.3019
5.03694 88.657 14.6015
5.89458 88.7725 13.3151
6.27049 88.9757 11.5998
8.03867 88.2632 7.74043
19.17 87.1666 -20.6753
19.2272 87.5959 -20.6137
19.1853 88.5624 -20.7078
19.1872 89.404 -20.8418
19.6409 89.8282 -21.1642
19.6168 90.6909 -21.4169
19.6168 91.5486 -21.6785
20.0456 92.4062 -22.2164
20.0456 92.835 -22.3519
20.0456 93.6927 -22.6273
20.0456 94.5503 -22.9512
20.4744 95.4079 -23.6002
20.4744 95.9499 -23.9921
20.9032 96.4381 -24.8498
-5.80014 -3.64905 41.1882
-6.06311 -2.3626 42.0459
-5.99582 -1.50496 42.0459
-5.88053 -1.07614 41.6171
-5.75982 -0.647325 41.1882
-5.46743 0.210313 40.7594
-5.12663 1.06795 39.9018
-5.02396 1.49677 39.0442
-4.90707 1.92558 38.6153
-4.82588 2.3544 37.8774
-4.38541 3.21204 36.9001
-3.9902 3.64086 36.9001
-3.96824 4.4985 35.8942
-3.53942 5.04586 35.6136
-3.53942 5.78495 34.9284
-3.1106 6.21377 34.7968
-3.1106 7.0714 34.0359
-2.63159 7.92904 33.4695
-2.68178 8.35785 33.1054
-2.68178 9.21549 32.6296
-2.25296 9.64431 32.4544
-2.25296 10.5019 31.725
-1.82415 11.139 31.3254
-1.82415 11.7884 30.9737
-1.82415 12.646 30.6326
-1.82415 13.5037 30.3402
-1.82415 14.2459 30.039
-1.39533 14.7901 29.8487
-1.39533 16.5054 30.4232
-1.39533 16.9342 30.5579
-1.82415 17.7919 30.3904
-1.82415 19.0783 30.6141
-1.82415 20.3648 31.0461
-1.82415 21.2224 31.2405
-2.25296 22.08 31.5533
-2.25296 22.9377 31.6661
-2.25296 23.3665 31.6487
-2.25296 24.2241 31.5071
-1.82415 25.5106 31.3809
-2.25296 26.797 31.9046
-2.25296 27.6547 32.5486
-2.68178 28.9411 33.0094
-2.68178 29.7988 33.2543
-3.1106 30.6564 33.3696
-3.1106 31.4016 33.4695
-3.1106 32.3717 33.5291
-3.1106 33.2293 33.3474
-2.68178 33.6581 32.6951
-2.68178 34.9446 32.6333
-2.68178 35.8022 32.7088
-2.68178 36.6599 32.7167
-2.68178 37.9463 33.3242
-3.1106 38.804 33.5317
-3.1106 39.7168 33.8983
-3.53942 40.948 34.3364
-3.1106 41.8057 34.5414
-3.1106 42.6633 34.6339
-3.53942 43.6088 34.756
-3.53942 44.3786 34.9059
-4.82588 46.6875 37.7577
-4.82588 47.3803 38.08
-4.82588 47.8091 38.1236
-4.39706 49.0956 38.0248
-4.82588 50.382 38.2459
-4.82588 51.2397 38.5524
-4.82588 52.0973 38.7024
-4.82588 52.9549 38.7832
-4.82588 54.2414 38.9186
-5.25469 55.099 38.9801
-4.82588 55.9567 39.1574
-5.25469 56.8143 39.1911
-5.25469 57.2431 39.198
-4.82588 58.1008 39.0488
-4.82588 58.9584 38.6295
-4.82588 60.2449 38.8742
-4.92853 61.1025 39.0442
-4.85606 61.5313 39.0442
-4.82588 62.389 39.006
-4.82588 63.2466 38.9608
-4.82588 64.1042 38.8611
-4.82588 64.9619 38.7258
-4.82588 65.8195 38.5725
-4.82588 66.6771 38.3615
-4.82588 67.1059 38.1878
-4.39706 67.9636 37.4544
-4.3391 69.25 37.3289
-4.39706 70.1077 37.3325
-4.1219 70.5365 37.3289
-4.39706 71.3941 37.0279
-3.96824 72.1018 36.9001
-3.96824 72.6806 36.7072
-3.96824 73.5382 36.3827
-3.53942 74.8247 35.8795
-3.53942 75.2535 35.6613
-3.53942 75.6823 35.3768
-3.1106 76.3693 34.756
-3.1106 77.3976 34.3866
-3.1106 77.8264 34.2985
-3.1106 78.5803 33.8983
-2.68178 79.5417 33.0271
-2.25296 79.9705 32.6218
-2.25296 80.8281 31.7273
-2.25296 81.2643 31.3254
-1.82415 81.7499 30.8966
-1.39533 82.5434 30.1911
-1.39533 83.0439 29.6102
-0.966514 83.6573 28.7525
-0.537695 84.2587 28.1359
-0.108876 84.6875 27.3351
-0.108876 85.1163 26.1081
0.154247 85.974 25.322
0.748762 86.4028 24.5798
0.748762 86.8167 23.6067
1.17758 87.2604 22.5843
1.60639 87.5881 21.4626
2.46403 87.9976 20.1762
2.89285 88.3898 18.8897
3.32167 88.6397 17.1744
4.60812 88.5928 15.0303
4.66182 88.9757 13.7439
5.46576 89.1334 12.0286
6.3234 89.084 9.88452
18.3099 85.4984 -20.1705
18.2962 85.9725 -20.0953
18.3264 86.8568 -20.1043
18.3303 88.118 -20.2353
18.8336 88.5435 -20.5568
18.3303 89.4045 -20.3358
18.3303 90.2621 -20.446
18.7591 91.1198 -20.9725
18.7591 91.9774 -21.1523
18.7591 92.4062 -21.2863
19.1879 93.2638 -21.8801
19.1879 94.1215 -22.3446
19.6168 94.4442 -22.7057
19.6168 95.4079 -23.2714
20.0456 95.8368 -23.7208
20.4744 96.3749 -24.4209
-6.11233 -2.37827 40.3306
-6.06376 -1.50496 40.3306
-5.85112 -0.647325 39.9018
-5.68351 0.0379581 39.473
-5.68351 0.210313 39.0507
-5.42007 1.06795 38.6153
-5.25469 1.93833 37.7577
-4.82588 2.54654 37.3289
-4.82588 2.78322 36.9068
-4.67166 3.64086 36.0424
-4.3191 4.06968 36.0424
-4.42112 4.92731 34.756
-3.96824 5.62157 34.756
-3.64629 6.64258 33.8983
-3.658 7.0714 33.4695
-3.1106 8.05596 33.0407
-3.1106 8.35785 32.8332
-3.24174 9.21549 32.1831
-3.1106 9.64431 31.9902
-2.68178 10.3851 31.7542
-2.68178 11.0481 31.3254
-2.25296 11.7884 30.933
-2.25296 12.646 30.5979
-2.25296 13.5037 30.3307
-2.25296 14.22 30.039
-1.82415 14.7901 29.8404
-2.25296 16.0766 30.1648
-2.25296 16.9342 30.5423
-2.25296 17.7919 30.3995
-2.68178 19.0783 30.6318
-2.68178 20.3648 31.0594
-2.68178 21.2224 31.1918
-3.1106 22.08 31.5668
-3.1106 22.9377 31.7074
-3.1106 23.3665 31.7182
-3.1106 24.2241 31.6476
-3.1106 25.5106 31.5318
-3.1106 26.7649 31.7542
-3.1106 27.6547 32.014
-3.1106 28.9411 32.831
-3.55676 29.7988 33.0407
-3.53942 30.6564 33.2865
-3.53942 31.9429 33.56
-3.96824 32.8005 33.7064
-3.96824 33.6581 33.8801
-4.10546 34.5158 33.8983
-3.96824 34.9446 33.581
-3.67024 35.3734 33.0407
-3.53942 36.231 32.7491
-3.53942 37.9463 33.2827
-3.53942 38.804 33.5206
-3.53942 39.9189 33.8983
-3.96824 40.948 34.2784
-3.96824 41.8057 34.5196
-3.96824 42.6633 34.5803
-4.39706 43.5209 34.7042
-5.25469 45.665 37.1884
-5.25469 46.5227 37.7353
-5.25469 47.3803 37.9847
-5.25469 47.8091 37.9582
-5.25469 48.6668 37.7363
-5.68351 50.382 38.3123
-5.68351 51.2397 38.4713
-5.68351 52.0973 38.5324
-5.68351 52.9549 38.6241
-5.68351 53.8126 38.7513
-5.68351 55.099 38.9293
-5.68351 56.0089 39.0442
-5.68351 56.8143 39.1251
-5.68351 57.2431 39.1252
-5.68351 58.1008 38.8907
-5.72604 58.5296 38.6153
-5.68351 60.2449 38.7712
-5.68351 61.1025 38.9354
-5.68351 61.5313 38.9283
-5.68351 62.389 38.8744
-5.68351 63.2466 38.8203
-5.68351 64.1042 38.695
-5.68351 64.6584 38.6153
-5.68351 65.8195 38.4388
-5.25469 66.6771 38.2852
-5.68351 67.1059 38.0748
-4.82588 67.9636 37.3837
-4.82588 69.25 37.0877
-4.82588 70.1077 37.1557
-4.82588 70.5365 37.115
-4.84695 71.3941 36.9001
-4.82588 71.8229 36.7851
-4.82588 72.7767 36.4712
-4.39706 73.5382 36.3004
-4.39706 74.3959 35.9355
-4.39706 75.2535 35.4975
-4.39706 75.6823 35.1799
-3.96824 76.5399 34.5202
-3.96824 76.9688 34.3686
-3.96824 77.8264 34.2173
-3.96824 78.684 33.6817
-3.1106 79.4834 33.0407
-3.1106 79.9087 32.6119
-2.68178 80.8625 31.7542
-2.68178 81.2569 31.3689
-2.68178 81.7337 30.8966
-2.25296 82.6874 30.039
-1.82415 82.9722 29.6666
-1.82415 83.8299 28.6256
-1.39533 84.2587 28.022
-0.966514 84.6875 27.3718
-0.966514 85.1163 26.2337
-0.537695 85.9954 25.322
-0.108876 86.4028 24.6188
-0.0100754 86.8316 23.6067
0.748762 87.2604 22.6449
1.17758 87.6892 21.3215
2.03521 88.0178 20.1762
2.03521 88.5934 18.8897
2.89285 88.7501 17.6032
3.32167 88.7941 15.4592
4.17931 89.0967 13.7439
4.60812 89.2462 12.4574
5.46576 89.3069 10.3133
6.75221 88.7783 6.88279
17.3939 83.7742 -19.7167
17.4538 84.7053 -19.6309
17.5275 85.5449 -19.7035
17.4727 86.4028 -19.6433
17.6161 87.6892 -19.7039
17.4727 88.118 -19.6062
17.4727 88.9335 -19.7039
17.4727 90.2621 -19.8485
17.4727 90.6909 -19.9599
17.5088 91.1198 -20.1328
17.9015 91.9774 -20.657
17.9015 92.6224 -20.9904
18.3303 93.2638 -21.5204
18.3303 94.1215 -22.0661
18.7591 94.5503 -22.4593
18.7591 95.4852 -23.1345
19.1879 95.8445 -23.5633
19.6168 96.4684 -24.4209
20.0456 96.5724 -26.1362
-5.68351 -2.47403 37.7577
-6.03724 -1.07614 38.6153
-6.11233 -1.07614 38.2861
-5.85512 0.210313 38.1865
-5.8441 0.639132 37.3289
-5.52159 1.49677 37.3289
-5.44907 1.92558 36.9001
-5.25469 2.78322 36.1729
-5.00003 3.21204 36.0424
-4.81309 4.06968 35.1848
-4.69831 4.4985 34.756
-4.39706 5.35613 34.3785
-4.39706 5.78495 33.7892
-3.96824 6.64258 33.4906
-4.05421 7.50022 32.6119
-3.76824 7.92904 32.6119
-3.63045 8.78667 32.1831
-3.53942 9.59324 31.7542
-3.53942 10.5602 31.3254
-3.1106 10.9308 31.324
-3.1106 11.6283 30.8966
-3.1106 12.646 30.528
-3.1106 13.5037 30.2706
-3.1106 14.3613 29.9255
-2.68178 14.7901 29.7978
-3.1106 16.5054 30.3679
-3.1106 16.9342 30.4715
-3.1106 17.7919 30.3118
-3.1106 19.0783 30.6438
-3.53942 20.3648 31.0867
-3.53942 21.2224 31.1989
-3.53942 22.08 31.5394
-3.53942 22.9377 31.7125
-3.53942 23.3665 31.7358
-3.53942 24.2241 31.6935
-3.53942 25.9394 31.6845
-3.96824 26.797 31.8166
-3.53942 27.6547 31.8628
-3.53942 28.5123 32.2226
-3.96824 29.5701 32.6119
-3.96824 30.6564 33.1791
-3.96824 31.6651 33.4695
-4.39706 32.8005 33.6961
-4.82588 33.8097 33.8983
-4.82588 34.5158 34.0089
-4.82588 34.9446 34.0194
-4.39706 35.8022 33.5325
-4.39706 36.231 33.1927
-3.96824 37.9463 33.2566
-3.96824 38.6986 33.4695
-4.39706 39.6616 33.6832
-4.39706 40.948 34.1563
-4.39706 41.8057 34.4333
-4.39706 42.6633 34.5406
-5.68351 44.2489 36.0424
-5.82333 45.665 37.3289
-5.68351 46.5227 37.7132
-5.81036 47.3803 37.7577
-5.68351 48.238 37.6224
-6.11233 49.0956 37.7951
-6.11233 50.382 38.3075
-6.11233 51.2397 38.3749
-6.11233 52.0973 38.4669
-6.11233 52.9549 38.5528
-6.11233 53.8126 38.6987
-6.11233 54.6702 38.8251
-6.54115 55.9567 38.9264
-6.54115 56.8143 39.0052
-6.54115 57.2431 38.9894
-6.11233 58.1008 38.8169
-6.54115 58.5296 38.4579
-6.11233 60.2449 38.7419
-6.54115 61.1025 38.8433
-6.11233 61.9601 38.8526
-6.11233 62.389 38.821
-6.11233 63.2466 38.7396
-6.11233 64.3215 38.6153
-6.11233 64.9619 38.5321
-6.11233 65.8195 38.3769
-6.54115 66.2483 38.2216
-6.11233 67.1059 38.0169
-5.68351 67.9749 37.3289
-5.59212 68.3924 36.9001
-5.68351 69.25 36.5718
-5.68351 70.5365 36.5424
-5.25469 71.3941 36.6566
-5.16181 72.2518 36.4712
-5.25469 72.6806 36.2468
-5.25469 73.5382 35.9193
-4.82588 74.8117 35.6136
-5.25469 74.8247 35.3104
-4.82588 75.8591 34.756
-4.39706 76.5399 34.4036
-4.39706 76.9688 34.2834
-4.39706 77.8264 34.1354
-3.96824 78.9429 33.4695
-3.96824 79.4554 33.0407
-3.96824 79.9038 32.6119
-3.53942 80.7815 31.7542
-3.1106 81.2569 31.2945
-3.1106 81.6858 30.8461
-2.68178 82.5434 30.2094
-3.1106 82.9722 29.6017
-2.25296 83.6669 28.7525
-2.25296 84.2587 28.0442
-1.39533 84.7848 27.0372
-1.39533 85.1176 26.1796
-0.966514 85.974 25.4342
-0.537695 86.4028 24.4766
-0.537695 86.8316 23.6334
0.319943 87.2144 22.7491
0.748762 87.6892 21.5859
0.708953 88.118 20.1762
1.17758 88.5469 19.3076
2.03521 88.8823 18.0321
2.46403 88.9757 15.7233
3.32167 89.2241 14.6015
3.63702 89.4045 12.8862
4.60812 89.515 10.7422
5.46576 89.3286 8.16924
16.6851 82.5305 -19.5348
16.5435 83.4001 -19.2743
16.615 83.8299 -19.2555
16.3974 85.1163 -18.8463
16.5083 85.974 -18.8463
16.5003 86.4028 -18.8463
16.615 87.2604 -18.9945
16.615 88.118 -19.1087
16.6892 88.9757 -19.2751
16.615 89.8333 -19.3906
16.615 90.6909 -19.6062
17.099 91.5486 -20.1328
17.0439 91.9774 -20.3665
17.4727 92.835 -21.0258
17.4727 93.2638 -21.2856
17.4727 94.0515 -21.848
17.9015 94.9791 -22.6368
18.3303 95.4895 -23.1345
18.7591 96.1619 -23.9921
19.1879 96.4327 -24.4209
19.6168 96.5843 -26.1362
-5.88918 -1.93378 36.4712
-6.21113 -1.07614 36.9001
-6.11233 -0.195445 36.9001
-6.03312 0.210313 36.9001
-5.91883 1.06795 36.4712
-5.88334 1.49677 36.0424
-5.68351 2.35158 35.6136
-5.47818 3.21204 34.756
-5.25469 3.64086 34.7935
-5.09527 4.4985 33.8983
-4.84769 5.35613 33.4695
-4.53111 6.21377 33.0407
-4.59916 6.64258 32.6119
-4.34506 7.0714 32.6119
-4.39706 7.92904 31.8702
-3.96824 9.21549 31.603
-4.0776 9.64431 31.3254
-3.85534 10.0731 31.3254
-3.96824 10.8469 30.8966
-3.53942 12.2172 30.5447
-3.53942 12.646 30.4319
-3.53942 13.5037 30.2132
-3.53942 13.9325 30.0714
-3.53942 14.7901 29.7918
-3.53942 16.5054 30.3341
-3.53942 16.9342 30.4108
-3.53942 17.7919 30.2241
-3.53942 19.0783 30.6167
-3.96824 20.3648 31.0945
-4.39706 21.2224 31.2087
-3.96824 22.08 31.5235
-3.96824 22.9377 31.6731
-4.02481 23.7953 31.7542
-3.96824 24.2241 31.7356
-4.39706 25.9394 31.8167
-4.39706 26.797 31.8888
-4.39706 27.2259 31.8657
-4.39706 28.5123 31.7816
-4.26512 29.3699 32.1831
-4.81345 30.6564 32.6119
-4.82588 31.514 33.1756
-4.82588 32.8005 33.6484
-5.25469 33.6581 33.7946
-5.25469 34.5158 33.9589
-5.25469 34.9446 33.9597
-5.25469 35.8022 33.8413
-4.82588 36.357 33.4695
-4.82588 37.4852 33.0407
-5.25469 38.804 33.3515
-4.82588 39.6616 33.6566
-4.82588 40.0904 33.7649
-5.25469 41.8057 34.2717
-5.25469 42.6633 34.4314
-6.54115 44.3786 36.6311
-6.59809 45.665 37.3289
-6.54115 46.5227 37.4714
-6.65026 46.9515 37.3289
-6.54115 48.238 37.4564
-6.96997 49.0956 37.8432
-6.54115 49.9532 38.1492
-6.96997 51.2397 38.2173
-6.96997 52.0973 38.3158
-6.96997 52.9549 38.4123
-6.96997 53.8126 38.5771
-6.96997 54.6702 38.7226
-6.96997 55.9567 38.8544
-6.96997 56.8143 38.9133
-6.96997 57.2431 38.9002
-6.96997 58.1337 38.6153
-6.96997 58.5296 38.378
-6.96997 60.2449 38.6274
-6.96997 61.1025 38.7634
-6.96997 61.5313 38.7465
-6.96997 62.389 38.687
-6.96997 63.2249 38.6153
-6.96997 64.1042 38.5099
-6.96997 64.9619 38.3698
-6.96997 65.3907 38.2943
-6.96997 66.2483 38.1352
-6.54115 67.1059 37.9613
-6.54115 68.0573 37.3289
-6.54115 68.3924 36.8425
-5.89007 69.6788 36.4712
-5.90342 70.1077 36.4712
-6.11233 70.9653 36.2923
-6.11233 71.8229 36.0852
-5.68351 72.6806 35.8446
-5.68351 73.5382 35.5697
-5.68351 73.967 35.3633
-5.68351 74.8247 34.9036
-5.25469 75.4942 34.756
-5.25469 76.1111 34.2694
-5.25469 76.9688 34.1456
-5.25469 77.8264 33.9839
-4.82588 78.7352 33.4695
-4.82588 79.1128 33.1626
-4.82588 79.7664 32.6119
-4.39706 80.8173 31.7542
-3.96824 81.2087 31.3254
-3.53942 82.0144 30.4678
-3.53942 82.5004 30.039
-3.1106 83.2651 29.1813
-3.1106 83.5586 28.7525
-2.68178 84.2587 27.9392
-2.68178 84.7601 27.0372
-2.25296 85.1163 25.9148
-1.82415 85.974 25.3903
-1.39533 86.4028 24.4249
-0.966514 86.8253 23.6067
-0.537695 87.2604 22.8228
-0.108876 87.6892 21.5195
0.319943 88.162 20.1762
0.319943 88.5469 19.4347
1.17758 89.0642 18.0321
2.03521 88.9269 15.888
2.03521 89.4491 15.0303
2.89285 89.5736 13.3151
3.75049 89.6631 11.171
5.03694 89.4728 8.59806
6.75221 88.3685 3.45225
15.7574 81.6858 -19.0749
15.4978 82.9722 -18.4175
15.3286 83.8299 -18.2466
15.3286 84.6875 -18.2112
15.3286 85.1163 -18.2107
15.6687 85.974 -18.4175
15.5347 86.8316 -18.4175
15.7574 87.6892 -18.5977
15.7574 88.5469 -18.718
15.8032 88.9757 -18.8463
15.7574 89.8333 -19.0779
16.1862 90.6909 -19.5131
16.1862 91.5486 -19.9198
16.615 92.4062 -20.5411
17.0439 92.9021 -20.9904
17.0439 93.2638 -21.2524
17.0439 94.0512 -21.848
17.4727 94.9791 -22.6781
17.9015 95.4079 -23.0926
17.9015 95.9216 -23.9921
18.3303 96.3048 -24.8498
-6.22295 -0.218506 35.6136
-6.14944 1.06795 35.1848
-6.09434 1.49677 35.1848
-5.99833 1.92558 34.756
-5.73726 2.78322 34.3271
-5.5881 3.64086 33.8983
-5.50376 4.06968 33.4695
-5.25469 4.92731 33.1282
-5.03365 5.78495 32.6119
-4.90876 6.64258 32.1831
-4.69942 7.50022 31.7542
-4.74365 7.92904 31.3254
-4.58385 8.35785 31.3254
-4.50174 9.64431 30.8966
-4.39706 10.5019 30.6965
-4.51576 10.9308 30.4678
-4.39706 11.7884 30.331
-4.39706 12.646 30.1524
-4.39706 13.2888 30.039
-4.39706 13.9325 29.8873
-3.96824 14.7901 29.7523
-4.39706 16.5054 30.2305
-4.39706 16.9342 30.249
-4.33283 18.2207 30.039
-4.82588 19.0783 30.4844
-4.82588 20.3648 31.0202
-4.82588 21.2224 31.1591
-4.82588 22.08 31.4865
-4.82588 22.9377 31.6605
-5.25469 23.7953 31.742
-5.25469 24.2241 31.7139
-4.82588 25.9394 31.8132
-5.25469 26.797 31.9556
-5.25469 27.2259 31.9393
-5.25469 28.0835 31.7746
-4.82588 29.3699 31.9225
-5.25469 30.2276 32.0635
-5.25469 31.514 32.8132
-5.68351 32.3717 33.0986
-5.68351 33.6581 33.6975
-5.68351 34.5158 33.8359
-5.68351 35.3734 33.8253
-5.68351 35.8022 33.7612
-5.68351 36.5335 33.4695
-5.25469 37.0887 33.1735
-5.68351 38.804 33.2124
-5.68351 39.7769 33.4695
-5.68351 40.5192 33.6599
-5.68351 41.8057 34.1708
-6.96997 43.0921 35.7691
-6.96997 44.3786 36.6832
-6.96997 45.665 37.2466
-6.96997 46.0938 37.2771
-6.96997 47.3803 37.1499
-7.39879 48.238 37.4913
-7.39879 48.6668 37.673
-7.39879 50.382 38.0329
-7.39879 51.2397 38.1192
-7.39879 52.0973 38.2319
-7.39879 52.9549 38.3346
-7.39879 53.8126 38.4872
-7.82761 54.6702 38.5476
-7.82761 55.5278 38.6876
-7.82761 56.8143 38.767
-7.82761 57.2431 38.7425
-7.82761 57.6719 38.637
-7.39879 58.5296 38.2753
-7.39879 59.816 38.3791
-7.65896 60.6737 38.6153
-7.68151 61.5313 38.6153
-7.39879 62.8178 38.5626
-7.39879 63.6754 38.4813
-7.39879 64.1042 38.4211
-7.39879 64.9619 38.2947
-7.53919 65.3907 38.1865
-7.39879 66.2483 38.0351
-7.39879 67.2312 37.7577
-7.39879 67.9636 37.4742
-6.96997 68.4836 36.9001
-6.96997 69.25 36.3512
-6.96997 70.5365 36.4289
-6.96997 70.9653 36.3837
-6.96997 71.8229 36.1924
-6.96997 72.6806 35.8835
-6.54115 73.2584 35.6136
-6.54115 73.967 35.3111
-6.54115 74.9039 34.756
-6.11233 75.2535 34.4087
-5.68351 76.1111 34.0906
-5.68351 76.9688 34.0514
-5.68351 77.8264 33.874
-5.68351 78.684 33.3468
-5.25469 79.1128 33.0793
-5.25469 79.9705 32.3435
-4.82588 80.3993 31.9974
-4.82588 81.0522 31.3254
-4.82588 81.6858 30.6442
-4.39706 82.4562 30.039
-3.96824 82.9722 29.4089
-3.53942 83.5477 28.7525
-3.53942 84.1321 27.8949
-3.25381 84.6875 27.0372
-2.68178 85.1163 25.8232
-2.25296 85.9353 25.322
-1.82415 86.4046 24.4643
-1.82415 86.7551 23.6067
-1.39533 87.2604 22.6833
-0.966514 87.6892 21.5516
-0.537695 88.1482 20.605
-0.108876 88.6347 19.3185
0.319943 89.0004 18.4609
1.60639 88.9544 15.888
2.03521 89.5376 14.6015
2.46403 89.6885 13.3151
2.89285 89.7995 11.5998
3.75049 89.7989 9.4557
5.89458 88.6284 3.88107
14.4709 81.2569 -17.8649
14.4709 82.1146 -17.765
14.4709 82.9722 -17.7237
14.4709 83.401 -17.7404
14.4709 84.2587 -17.7758
14.4709 85.1163 -17.8136
14.7166 85.974 -17.9887
14.8998 86.8316 -18.1318
14.8998 87.6892 -18.2664
14.8998 88.422 -18.4175
14.8998 89.4045 -18.7424
15.3286 89.8333 -18.9824
15.7574 90.6909 -19.4158
15.7574 91.2809 -19.7039
15.7574 91.9774 -20.1437
16.1862 92.835 -20.7775
16.1862 93.5188 -21.4192
16.615 94.0297 -21.848
17.0439 94.9207 -22.7057
17.0439 95.2314 -23.1345
17.4727 95.8837 -24.4209
17.9015 96.1543 -25.2786
-6.08936 1.06795 33.4695
-6.08373 1.92558 33.4695
-5.97206 2.78322 33.0407
-5.9085 3.21204 32.6119
-5.79716 3.64086 32.6119
-5.74447 4.4985 31.7542
-5.41548 5.78495 31.7542
-5.41711 6.21377 31.3254
-5.25469 6.64258 31.432
-5.18094 7.50022 30.8966
-4.97883 8.78667 30.4678
-4.89608 9.21549 30.4678
-4.82588 10.0731 30.3515
-4.82588 10.5019 30.2706
-4.82588 11.3596 30.1498
-4.82588 12.2172 30.0017
-4.82588 13.0749 29.8981
-4.82588 13.9325 29.7312
-4.88982 15.2189 29.6102
-4.82588 16.5054 30.135
-4.82588 16.9342 30.1256
-4.82588 18.2207 29.9308
-5.25469 19.0783 30.4565
-5.25469 20.3648 30.988
-5.25469 21.2224 31.1113
-5.25469 22.08 31.4246
-5.68351 22.9377 31.6074
-5.68351 23.7953 31.7023
-5.68351 24.2241 31.6986
-5.68351 25.8006 31.7542
-5.68351 26.797 31.955
-5.68351 27.2259 31.938
-5.68351 28.0835 31.7827
-5.68351 29.3699 31.923
-6.11233 30.2276 32.0057
-5.68351 31.0852 32.2358
-6.11233 32.57 33.0407
-6.11233 33.6581 33.5785
-6.54115 34.5158 33.6338
-6.54115 34.9446 33.6532
-6.54115 35.8022 33.5318
-6.11233 36.6599 33.3034
-6.11233 37.0887 33.0811
-6.11233 38.3751 33.0103
-6.11233 39.6616 33.3921
-6.54115 40.5192 33.5833
-6.54115 41.3769 33.804
-7.39879 43.0921 35.8597
-7.82761 44.3786 36.6645
-7.82826 45.2362 36.9001
-7.82761 45.665 36.8833
-7.82761 46.9732 36.9001
-7.82761 48.238 37.4949
-7.82761 49.0956 37.7064
-7.82761 49.9532 37.8554
-8.25642 50.8109 37.8649
-8.25642 52.0973 38.0549
-8.25642 52.9111 38.1865
-8.25642 53.8126 38.3524
-8.25642 54.6702 38.482
-8.28846 55.5278 38.6153
-8.25642 56.3855 38.6832
-8.25642 56.8143 38.6896
-8.25642 57.6719 38.5574
-8.25642 58.5296 38.0795
-8.63626 59.816 38.1865
-8.25642 60.6737 38.4886
-8.25642 61.1025 38.5219
-8.25642 62.389 38.4532
-8.25642 62.8178 38.4165
-8.25642 63.6754 38.2987
-8.21338 64.533 38.1865
-8.25642 65.3907 38.0128
-8.25642 66.2483 37.8365
-7.82761 66.9359 37.7577
-7.82761 68.1376 37.3289
-7.82761 68.638 36.9001
-7.39879 69.25 36.3467
-7.39879 70.5365 36.4224
-7.39879 70.9653 36.395
-7.39879 71.8229 36.1732
-7.39879 72.6806 35.8624
-7.39879 73.3463 35.6136
-6.96997 73.967 35.4086
-6.96997 74.9849 34.756
-6.54115 75.3658 34.3271
-6.40015 76.5399 33.8983
-6.4282 76.9688 33.8983
-6.54115 77.8264 33.7054
-6.11233 78.684 33.2623
-6.0557 79.5417 32.6119
-6.11233 79.9705 32.2279
-5.68351 80.5094 31.7542
-5.68351 81.2569 30.9341
-5.25469 81.6858 30.5546
-5.25469 82.2789 30.039
-4.82588 82.9722 29.2789
-4.39706 83.7615 28.3237
-3.96824 84.1164 27.8949
-3.96824 84.6875 26.9692
-3.1106 85.1418 25.7508
-3.1106 85.7536 25.322
-3.1106 86.3241 24.4643
-2.68178 86.7303 23.6067
-1.82415 87.2604 22.4579
-1.39533 87.6892 21.4945
-1.26063 88.118 20.605
-0.966514 88.5469 19.497
-0.108876 89.0207 18.4609
0.748762 88.8456 15.888
1.21929 89.4045 15.0303
1.60639 89.8076 13.3151
2.46403 89.905 11.5998
3.32167 89.8914 9.4557
4.17931 89.6675 6.88279
6.3234 88.204 0.87934
13.5096 82.5434 -17.131
13.6133 83.401 -17.2735
13.6133 83.8299 -17.3062
13.6133 84.6875 -17.3815
13.8944 85.1163 -17.5598
14.0421 85.974 -17.7277
14.0421 86.8316 -17.8341
14.0421 87.6892 -18.0045
14.0421 88.5469 -18.2787
14.4709 89.4045 -18.6815
14.4709 89.8333 -18.8771
14.4709 90.5947 -19.2751
14.8998 91.5486 -19.8815
15.3286 91.9787 -20.1328
15.3286 92.835 -20.8652
15.7574 93.4517 -21.4192
