ply
format ascii 1.0
element vertex 1957
property float x
property float y
property float z
element face 0
property list uchar int vertex_indices
end_header
11.4692 82.6554 -28.2803
12.1499 84.6875 -28.7091
13.1845 86.8492 -28.7091
14.2135 88.9757 -27.8515
15.7574 91.2137 -26.565
22.2867 95.4079 -25.2786
21.9758 95.8368 -25.2786
20.0456 96.6944 -25.2692
-50.6125 74.3229 -52.5578
-50.6671 75.7235 -52.2983
-51.9959 76.6279 -52.2941
52.2069 50.5813 -11.9852
55.6375 53.5839 -11.1276
59.4969 56.8143 -9.56414
60.7833 58.7816 -9.4123
61.5071 61.1025 -8.98348
62.0698 62.8012 -8.98348
62.1432 63.6754 -8.98348
61.8467 64.9619 -8.98348
61.2425 66.6771 -8.98348
60.4645 67.9636 -9.4123
59.6582 69.25 -8.98348
58.9442 70.9653 -10.2699
57.8434 72.2518 -10.2699
56.0663 73.3238 -11.1276
53.9222 74.228 -11.5564
52.2069 75.2644 -12.414
46.2035 74.8631 -14.9869
8.98645 63.6754 -27.8515
9.00806 65.8195 -27.8515
8.8963 66.8551 -27.8515
8.86924 68.8212 -28.7091
8.8963 71.0194 -28.2803
9.22035 71.8229 -27.8515
8.46749 72.8654 -28.2803
5.03694 74.3959 -29.3528
3.75049 74.8247 -29.8029
10.6116 80.5372 -27.4227
11.3115 82.5434 -27.8515
11.7065 84.2587 -27.8515
12.3268 86.5239 -26.9938
13.6133 88.4648 -26.9938
21.5193 93.2935 -23.8657
21.7608 94.5503 -24.2413
21.2288 95.8368 -24.4209
20.0456 96.6428 -24.8498
-52.3847 72.8543 -51.4656
-51.3206 74.8127 -51.4049
-51.1716 75.711 -51.5318
-51.9959 76.5346 -51.4365
52.2069 50.5911 -11.5564
55.0667 53.3838 -10.2699
59.068 56.7006 -8.12585
60.3545 58.5296 -8.50741
60.7833 60.6737 -8.1361
61.3527 62.8178 -8.12585
61.2121 64.533 -7.77447
61.3761 64.9619 -8.12585
61.0214 66.2483 -8.12585
60.3545 67.7971 -8.12585
59.6097 69.25 -8.55467
58.7446 70.9653 -8.98348
57.3528 72.0147 -8.98348
55.0967 73.1094 -10.2699
53.4934 73.967 -10.9197
51.3493 75.006 -11.5564
8.68288 62.389 -27.4227
10.6116 64.1042 -25.9826
10.654 64.9619 -26.1362
10.1828 66.6771 -26.1064
9.32512 68.3924 -26.4284
9.33142 71.3941 -26.9938
9.61864 72.2518 -26.565
8.8963 73.3701 -26.565
9.0873 76.5399 -26.565
10.1828 78.704 -26.1362
11.0459 80.8281 -26.9938
11.0404 81.6858 -26.8983
11.1113 84.2587 -26.565
20.4459 89.611 -22.2511
21.0293 91.185 -22.6482
21.2016 92.4459 -23.0909
20.7381 93.6927 -23.1345
20.4744 94.9791 -23.3909
18.7591 96.1619 -23.9921
-52.8469 72.6901 -50.1524
-51.7229 74.8705 -50.4674
-51.7828 75.2796 -50.1771
-52.4247 76.3996 -50.5788
54.351 53.1182 -8.98348
58.6392 56.3855 -7.49251
59.6535 58.5296 -7.26821
59.9266 59.816 -7.26821
60.1705 61.1025 -7.26821
60.4545 63.6754 -6.83939
60.4393 64.533 -6.83939
60.3545 66.6771 -7.21642
59.9257 67.9636 -7.18811
59.3041 69.25 -7.26821
58.6392 70.9653 -7.81741
56.4951 71.5846 -8.12585
53.9222 72.4384 -9.4123
52.2069 73.5382 -10.0164
49.2052 74.152 -11.1276
8.24949 61.9601 -26.565
11.898 64.9619 -24.2678
11.9129 65.8195 -24.4209
11.7001 67.1059 -24.4209
10.737 68.8212 -24.8498
10.2491 70.1077 -24.8498
9.92369 72.6806 -25.2786
9.75394 73.4458 -25.2786
10.6116 76.9688 -24.9912
10.6931 77.8264 -24.8498
10.7177 79.1128 -25.7074
10.4908 80.8281 -25.7074
10.9604 84.1595 -24.874
20.3743 89.3385 -22.0002
20.4944 89.7399 -21.9225
20.4763 91.5436 -22.1186
19.6168 93.2638 -22.1657
18.7591 94.5503 -22.4593
16.615 95.2946 -23.5633
-53.282 72.3387 -49.2931
-52.259 74.3554 -49.2666
-52.0195 75.2658 -49.3473
-53.2823 76.2713 -49.2924
53.8465 52.9549 -8.12585
57.7816 55.9567 -6.81226
58.7548 57.6719 -6.41057
59.2442 60.2449 -6.41057
59.0698 61.5313 -5.98175
59.6052 63.6754 -5.98175
59.7007 64.533 -5.98175
59.5377 66.2483 -5.98175
59.3178 67.5348 -5.98175
58.8429 69.25 -6.41057
57.7816 70.5365 -6.56714
55.2087 71.1042 -7.69703
52.6358 71.9561 -8.55467
50.9205 73.1629 -9.4123
47.0611 73.5188 -10.6988
8.10485 61.9601 -25.2786
12.3268 65.3907 -22.9743
12.5087 67.1059 -22.7057
12.4988 67.5348 -22.7057
12.0707 69.25 -23.1345
11.7063 70.9653 -23.1345
11.0404 72.2518 -23.3614
11.3294 75.6823 -23.1345
11.3697 76.1111 -23.1345
10.8456 77.3976 -23.9921
10.357 79.1128 -24.4209
18.3056 85.2116 -20.5576
19.4582 87.3178 -21.0265
19.6817 87.6979 -21.0068
19.6409 89.8282 -21.1642
19.1879 91.5486 -21.3648
18.7591 92.835 -21.4695
17.4727 94.0515 -21.848
-55.4094 68.4177 -49.3656
-53.2823 72.4613 -48.4347
-52.645 74.3884 -47.9948
-52.5948 74.8439 -48.0337
-53.7111 75.9534 -48.0059
52.6358 52.5261 -7.33399
56.0663 55.5278 -6.02822
57.9644 57.6719 -5.55293
58.2104 59.816 -5.34093
58.3724 61.5313 -5.12412
58.6392 63.3106 -5.12412
58.856 64.9619 -5.12412
58.6724 67.1059 -5.12412
58.6392 67.9636 -5.24839
58.2104 68.8212 -5.29025
56.9239 70.268 -5.98175
53.4934 70.5365 -7.27215
51.3493 71.3941 -7.94869
50.0628 72.6806 -8.59744
6.3234 59.6745 -23.9921
7.83179 61.9601 -23.9921
12.5052 65.3907 -21.848
12.662 67.1059 -21.4192
12.728 68.8212 -21.4192
12.7557 69.6788 -21.4678
12.3268 71.0261 -21.848
11.6512 72.6806 -21.848
11.7567 75.6823 -21.848
11.898 76.9688 -21.7807
15.7574 80.8281 -20.2781
17.0351 82.9753 -19.7525
18.1546 85.1244 -20.1656
18.7132 86.7457 -20.3035
18.3303 88.118 -20.2353
18.3303 90.2621 -20.446
18.0748 91.5486 -20.5616
17.4727 92.4062 -20.7613
15.7574 93.4517 -21.4192
-10.8293 86.4028 -30.2947
-10.8293 86.8316 -30.2436
-53.06 73.9669 -47.1502
-52.9837 74.8376 -47.1737
-54.14 75.8843 -47.5771
-48.5681 83.0567 -44.4515
-48.3929 83.7662 -44.989
-49.8518 84.4001 -45.0042
51.3493 51.6832 -6.83939
53.9222 54.6702 -5.5858
56.4457 57.2431 -4.6953
57.3528 59.3872 -4.48774
57.5643 61.1025 -4.26648
57.8681 63.2466 -4.26648
57.89 64.533 -4.26648
57.9045 65.3907 -4.26648
57.7816 67.1759 -4.26648
57.3528 68.3924 -4.49597
54.7799 69.6341 -5.55293
51.3493 69.6788 -6.40783
50.0628 70.9654 -7.26821
45.3458 70.967 -8.98348
6.47664 59.816 -22.7057
7.29451 61.5313 -22.2768
12.518 65.3907 -20.9904
12.773 67.1059 -20.1328
12.8863 69.25 -20.1328
12.8787 69.25 -20.5616
12.6947 70.9653 -20.1328
12.0978 72.6806 -20.5616
12.1032 74.8247 -20.5616
13.1845 78.0521 -20.1328
15.9193 80.8571 -19.9678
16.897 82.5529 -19.7344
17.0481 84.2566 -19.4728
17.0769 86.4028 -19.2751
17.0439 87.2604 -19.2689
17.0439 89.8333 -19.5685
16.615 90.6909 -19.6062
15.7574 91.5486 -19.8601
13.6133 92.4062 -20.9336
-8.61802 85.974 -28.2803
-8.68524 87.6499 -28.2803
-9.62514 89.4045 -28.7091
-10.8293 90.6909 -29.2049
-12.1158 91.9774 -29.4703
-13.8311 92.835 -30.1098
-48.9102 82.8257 -43.8401
-48.7721 83.3834 -44.2995
-49.8518 84.4122 -44.5754
49.2052 51.2397 -6.38233
51.6492 53.8126 -5.12412
54.7799 56.8143 -3.98598
56.0663 58.9584 -3.65038
56.4951 60.6737 -3.49179
56.9419 62.8178 -3.40884
56.9239 64.533 -3.37329
56.9239 64.9619 -3.39489
56.75 66.6771 -3.40884
55.6375 68.0736 -3.83766
51.7781 68.0544 -5.12412
50.0628 69.25 -5.91266
47.9188 70.3722 -6.83939
5.04673 57.2431 -22.2768
6.66473 59.816 -21.848
7.37704 61.5313 -21.848
9.10281 64.1042 -20.9904
12.8591 67.1059 -19.2751
13.0886 68.8212 -18.8463
13.042 69.6788 -18.8463
12.8716 71.3941 -18.8463
12.7039 73.5382 -18.8463
12.5072 74.3959 -19.2751
12.7557 77.779 -19.7039
14.8998 80.4004 -18.8463
15.8426 82.5434 -18.8463
15.9848 82.9722 -18.8463
16.1862 85.974 -18.6651
16.1862 87.2604 -18.7652
15.8032 88.9757 -18.8463
15.3286 89.8333 -18.9824
13.6133 91.1613 -19.7039
-7.39879 85.5451 -26.5305
-7.39879 86.4028 -26.5075
-8.19116 87.6892 -27.4227
-8.87628 89.4045 -26.9938
-9.83608 90.6909 -27.4227
-10.8293 91.9778 -27.8515
-12.3916 93.6927 -28.2803
-14.2599 94.5503 -29.1987
-15.9751 95.4079 -29.8241
-19.4057 95.8368 -30.9971
47.3696 50.382 -5.55293
50.4917 53.3838 -4.6445
51.3493 55.5278 -4.07056
54.7799 58.5296 -2.89214
55.2087 60.2449 -2.71206
55.6375 62.389 -2.61388
55.7536 63.6754 -2.55121
55.801 64.533 -2.55121
55.2087 65.8195 -2.5087
53.4934 67.0344 -3.40884
50.0628 67.5348 -4.54766
48.3476 68.5783 -5.12412
2.89285 54.9226 -21.848
4.91254 57.2431 -21.4192
6.12994 59.3872 -20.9904
7.7204 61.9601 -19.7039
8.98913 64.1042 -19.2751
12.369 67.1059 -18.4175
13.3858 69.25 -17.5598
13.3312 69.6788 -17.5598
13.1845 71.8229 -17.3879
12.9784 73.1094 -17.5598
12.4755 74.8247 -17.9887
12.077 77.3976 -18.8463
14.0421 79.9705 -17.983
14.7947 82.1146 -17.9887
14.9121 83.401 -17.9887
14.8038 85.1163 -17.9887
14.7166 85.974 -17.9887
14.4709 87.6892 -18.1304
13.6133 88.9757 -18.4419
11.5008 89.8333 -19.2751
-6.67619 85.1163 -24.8498
-7.11495 86.8316 -25.2786
-7.63204 88.118 -25.2786
-8.46084 89.4045 -25.7074
-9.54288 91.0257 -26.1362
-10.4005 92.1311 -26.565
-11.687 93.5572 -26.9938
-12.9734 94.7453 -27.4227
-15.1175 95.8804 -28.2803
-17.2616 96.6299 -29.1379
46.6441 49.9532 -4.6953
48.1823 52.5261 -3.83766
50.0628 55.099 -3.45475
50.9205 56.8143 -3.22214
53.4934 59.816 -1.90981
53.9222 61.5313 -1.80187
54.351 63.6754 -1.92027
54.351 64.533 -1.90931
53.9222 65.3907 -2.07651
50.4917 65.8195 -3.31509
47.9188 66.6771 -3.66548
46.6323 67.8667 -4.6953
2.03521 54.5962 -21.4192
5.03694 57.2789 -19.2751
6.75221 59.8511 -18.8463
8.73704 62.389 -17.9887
9.32512 64.2493 -17.9887
11.4692 66.778 -17.9887
14.3057 68.8212 -15.8446
13.8282 69.6788 -16.2734
13.4901 72.2518 -16.2734
13.22 73.1094 -16.2734
12.8674 74.8247 -16.2734
12.0107 76.1111 -16.7022
12.7557 79.5417 -17.0123
13.6133 81.2569 -17.2188
13.558 82.1146 -17.131
13.1845 83.8299 -17.1127
13.1845 85.5451 -17.3296
12.7557 86.8316 -17.4351
11.4736 88.118 -17.9887
-5.49532 83.8299 -23.1345
-6.1539 85.1163 -23.5633
-6.96997 87 -23.9921
-7.39879 88.1093 -23.9921
-8.25642 89.4993 -24.8498
-9.30997 91.1198 -24.8498
-10.3673 92.4062 -25.2786
-11.4818 93.6927 -25.7074
-12.861 94.9791 -26.1362
-14.6887 96.021 -26.9938
-16.8328 96.8221 -27.4227
-21.121 96.8832 -29.1379
46.0618 49.9532 -2.98002
47.5985 52.0973 -2.98002
48.3476 54.2414 -2.64735
49.2052 56.3855 -2.46911
49.634 58.1008 -2.41502
51.7781 60.6737 -1.52576
52.2069 62.8178 -1.38457
52.2069 63.6754 -1.42523
51.3493 64.401 -1.69357
47.9188 64.8481 -2.98002
46.6323 66.2068 -3.40884
5.55808 57.6719 -18.4175
6.75221 59.8309 -18.4175
8.79046 62.389 -17.5598
9.81229 64.533 -16.2734
16.5222 67.5348 -13.7005
15.7574 68.8212 -14.3201
15.1897 70.5365 -14.1293
14.3228 71.8229 -14.5581
13.6747 73.1094 -14.9869
13.1845 74.9456 -14.9869
12.0962 76.1111 -15.4157
11.898 79.1128 -16.5463
12.3268 81.2569 -16.4144
11.9556 82.1146 -16.2734
11.898 84.2587 -16.5658
11.4692 85.1163 -16.5865
10.6116 86.4028 -16.9482
0.748762 84.1954 -19.7039
-4.39706 84.2587 -21.5528
-5.90615 85.1163 -22.7057
-6.77697 86.8316 -22.7057
-7.36553 88.118 -22.7057
-8.25642 89.8365 -23.5633
-9.11406 90.9491 -23.5633
-10.3545 92.4062 -24.4209
-11.4571 93.6927 -25.2786
-12.8631 94.9791 -24.8498
-14.6887 96.1066 -25.7074
-16.8328 96.7848 -26.565
41.5141 46.5227 -2.98002
45.877 49.9532 -2.55121
47.1509 52.0973 -2.12239
47.9188 54.2414 -1.79924
48.171 55.5278 -1.69357
48.3476 57.6719 -1.62093
48.3476 59.3872 -1.4147
48.7764 61.5313 -1.48859
48.3476 61.9601 -1.54642
47.1325 63.6754 -2.12239
46.2035 64.533 -2.43085
42.3441 64.5776 -3.83766
20.0456 62.8178 -11.0546
19.9354 63.2466 -11.1276
19.1879 65.3907 -11.4219
18.381 66.2483 -11.9852
17.6847 67.9636 -11.9852
16.6838 69.25 -12.414
15.5463 70.5365 -13.2717
14.95 71.8229 -13.2717
14.0421 73.2037 -13.7005
13.3897 74.8247 -13.7005
12.1929 76.1111 -14.5581
11.4692 77.8822 -14.5581
11.0996 80.3993 -15.4157
11.0404 81.6858 -15.6513
10.6116 83.401 -15.7736
9.81586 84.2587 -15.8446
7.91422 85.1163 -16.7022
1.17758 84.506 -18.4175
-2.68178 84.6332 -19.7039
-5.25469 85.286 -20.5616
-6.54115 86.7208 -21.4192
-7.3746 88.118 -22.2768
-8.25642 89.6816 -21.848
-9.11406 90.8999 -22.7057
-10.4005 92.3775 -23.5633
-11.5934 93.6927 -23.9921
-12.9734 94.8024 -23.9921
-14.6887 95.8368 -24.2562
-17.2616 96.5817 -25.7074
42.1447 46.5227 -1.69357
44.917 49.6373 -1.26476
46.2035 51.6685 -0.75104
47.0611 53.8126 -0.535356
47.4899 55.5278 -0.387813
47.5533 55.9567 -0.407117
47.0611 57.6719 -0.0917441
46.9882 59.3872 -0.835936
46.2035 61.5313 -1.11644
45.3458 62.389 -1.23935
43.6306 63.368 -2.12239
35.483 61.9601 -4.249
21.8794 60.2449 -9.4123
21.7608 61.5313 -9.25234
21.4521 62.389 -9.4123
21.1275 63.6754 -9.4123
20.5149 65.3907 -9.84112
19.7925 66.6771 -10.2699
18.4956 67.9636 -10.6988
17.4727 69.3896 -11.1276
15.8832 70.5365 -11.5564
15.3286 71.9746 -11.5564
14.0421 73.3511 -12.414
13.4881 74.8247 -12.8428
12.4021 76.1111 -12.8428
11.7601 77.8264 -13.2717
10.7459 79.1128 -14.1293
10.2214 80.8281 -14.5581
9.32512 82.5123 -14.5581
8.8963 83.8299 -15.1319
4.51791 83.8299 -15.8446
1.17758 84.5397 -17.131
-2.25296 84.8123 -18.4175
-5.2201 85.5451 -19.2751
-6.54115 86.7002 -20.1328
-7.67105 88.118 -20.5616
-8.44669 89.4045 -20.9904
-9.54288 90.6909 -21.232
-10.8293 91.9774 -21.7199
-12.1158 93.4819 -22.7057
-13.4022 94.5364 -23.1345
-15.1175 95.8439 -23.9921
-19.377 95.8368 -25.7074
37.0669 -53.392 -2.55121
37.1983 -53.2988 -2.12239
36.3407 -51.7737 -2.55121
28.9085 -52.1055 -5.55293
28.6603 -51.2479 -5.55293
42.9698 46.9515 0.021702
43.8207 49.0956 -0.407117
45.6748 51.6685 0.021702
46.2771 53.3838 0.450521
46.8974 55.5278 0.450521
47.007 56.3855 0.450521
46.7385 57.6719 0.450521
46.2035 58.9584 0.215264
45.2191 60.6737 0.021702
44.5163 61.9601 0.021702
43.2018 63.1287 -0.407117
36.3407 62.2962 -2.55121
22.6185 58.9584 -7.61636
22.54 61.9601 -7.69703
22.6185 62.389 -7.56709
22.273 64.1042 -7.69703
21.332 65.6095 -8.12585
20.2604 67.1059 -8.55467
19.1879 68.2085 -8.98348
17.4727 69.6761 -9.84112
16.6889 70.9653 -9.84112
15.3672 72.2518 -10.6988
14.345 73.5382 -10.6988
13.6133 74.8561 -11.5564
12.4439 76.5399 -12.414
11.898 77.7179 -11.9852
10.4529 79.1128 -13.2717
9.56841 80.3993 -13.2717
8.88225 82.1146 -13.7005
7.60985 83.1865 -13.7005
5.03694 83.9546 -14.5581
2.03521 84.805 -15.4157
-0.537695 85.5379 -16.2734
-4.7675 85.5451 -17.9887
-6.54115 86.6156 -19.7039
-7.94156 88.118 -20.1328
-8.77933 89.4045 -20.5616
-9.97169 90.6909 -20.7861
-11.2582 91.9942 -21.4192
-12.9734 93.2638 -22.0024
-14.6887 94.5503 -22.6693
-16.8328 95.2942 -23.5633
37.0949 -53.392 -1.69357
36.9317 -52.9631 -1.69357
36.5934 -51.6767 -1.69357
35.483 -50.3902 -1.46184
28.6394 -51.2479 -5.12412
43.6095 47.3803 1.30815
44.2213 49.0956 1.73697
44.7773 51.2397 0.87934
45.3857 52.9549 1.30815
46.1864 55.099 1.30815
46.2035 55.9567 1.39944
46.0289 57.2431 1.30815
45.5457 58.9584 2.16579
45.1219 60.6737 1.30815
44.4388 61.9601 0.87934
42.7729 63.0454 0.021702
37.1983 62.6991 -0.835936
33.3389 62.9401 -2.55121
23.4292 61.1025 -5.98175
23.0473 63.3236 -6.41057
22.7689 64.533 -6.41057
21.9821 65.8195 -6.83939
20.4744 66.8863 -8.12585
19.3675 68.3924 -7.69703
17.9015 69.6788 -8.07746
16.7327 70.9653 -8.98348
15.4651 72.2518 -9.84112
14.6017 73.5382 -9.4123
13.6133 75.1487 -9.84112
12.3268 76.2589 -10.6988
11.4692 77.7875 -11.5564
10.7767 79.1128 -11.1276
9.32512 80.237 -11.9852
8.46749 81.6858 -12.4412
7.18103 83.1092 -13.2717
5.03694 84.0597 -13.2717
2.46403 84.7891 -14.1293
0.319943 85.641 -14.9869
-3.96824 85.8959 -16.2734
-6.96997 86.6475 -17.9887
-8.25642 87.6679 -18.4175
-9.54288 88.9762 -19.2751
-11.2582 90.2621 -19.9107
-12.5446 91.5486 -20.6095
-14.6887 92.3443 -20.9904
-55.8552 78.753 -36.8567
36.412 -53.8208 -0.835936
36.7695 -53.3872 -0.835936
36.5085 -51.6767 -0.835936
35.483 -49.8088 -0.407117
28.6273 -51.2452 -3.41015
27.7643 -49.8155 -3.40884
43.6699 47.3803 1.73697
44.6885 49.5244 3.02343
45.0948 51.2397 3.02343
45.5637 53.3838 3.45225
45.6619 54.2414 3.45225
45.7176 55.9567 3.45225
45.6537 58.1008 3.02343
45.5866 58.9584 2.59461
44.9959 60.2449 2.59461
43.6306 61.7009 2.16579
41.9153 62.6254 1.30815
37.6858 62.8178 0.021702
34.2225 63.2466 -0.835936
27.3355 62.502 -3.40884
23.9036 63.2466 -4.6953
23.4761 64.5377 -4.6953
22.4008 65.8195 -5.98175
20.9032 67.2125 -5.98175
19.8219 68.3924 -6.41057
18.3303 69.8172 -6.83939
16.615 70.8462 -7.26821
15.3286 72.1128 -8.55467
14.6058 73.5382 -8.98348
13.6928 74.8247 -8.98348
12.2119 76.5399 -8.98348
11.7041 77.8264 -9.4123
10.767 79.1128 -10.6988
9.32512 80.2174 -11.1276
8.16592 81.6858 -11.5564
6.3234 82.6866 -11.1276
5.03694 83.8821 -12.414
2.46403 84.6875 -13.1693
0.319943 85.7302 -13.7005
-2.68178 86.28 -14.5581
-7.39879 86.2291 -16.7022
-8.65218 87.6892 -17.9887
-10.8293 88.5469 -18.6204
-12.5446 89.8333 -19.412
-14.2599 90.6909 -20.0138
-54.5688 77.3976 -34.734
-56.7129 78.3361 -35.999
35.9118 -53.8208 0.0106028
36.3407 -53.392 0.29101
36.0718 -51.6767 0.450521
35.6382 -49.9614 0.021702
34.6254 -48.926 0.450521
27.7643 -49.7229 -2.55121
32.4813 -16.5136 -0.108856
33.0924 -14.7983 0.021702
33.0914 -14.3695 0.021702
32.9392 -12.6542 0.021702
32.0525 -11.3299 -0.407117
28.6219 -9.22369 -1.51551
31.548 -6.65078 -0.407117
31.6055 -5.79314 -0.407117
30.7748 -3.22023 -0.835936
30.766 -2.78288 -0.835936
29.9084 -1.50496 -1.10474
27.7643 -0.647325 -1.85259
42.7729 47.0933 2.59461
44.7292 49.5244 3.45225
45.1496 51.2397 3.45225
45.6116 53.3838 3.88107
45.6773 54.2414 3.88107
45.7405 55.9567 3.88107
45.5665 57.2431 3.88107
45.3458 58.9584 3.62339
44.4882 60.1329 3.45225
42.7729 61.1491 3.02343
41.0577 62.3156 2.59461
37.6271 62.9258 1.73697
35.0542 63.5497 0.87934
30.3372 63.6056 -1.26476
26.4902 64.1042 -2.55121
23.8547 64.9619 -3.40884
23.0473 66.2483 -3.81799
21.7608 67.6498 -4.26648
20.0456 68.5612 -5.12412
18.6576 69.6788 -5.98175
16.6189 70.9653 -6.41057
15.6907 72.2518 -6.41057
14.5499 73.5382 -6.83939
13.5008 74.8247 -7.69703
12.395 76.1111 -7.69703
11.6636 77.8264 -8.98348
10.6116 78.9549 -9.4123
8.83197 80.3993 -9.4123
8.03867 81.5907 -9.4123
6.75221 82.7699 -9.84112
5.03694 84.1156 -10.6988
2.46403 84.73 -11.5564
0.319943 85.7062 -12.414
-2.68178 86.257 -13.7005
-7.82761 86.0743 -16.2734
-10.8293 86.8316 -17.3956
-51.1382 73.5382 -32.4032
-51.9959 74.8247 -32.4954
-52.8535 76.3251 -32.9973
-55.8552 76.9688 -34.1146
36.0708 -52.9631 1.30815
35.73 -51.6767 1.30815
35.5357 -50.3902 1.30815
34.6254 -48.8509 1.73697
27.5739 -49.5326 -1.69357
26.049 -48.5513 -1.26476
32.9101 -18.0678 1.30815
33.7678 -16.0848 1.46102
34.0068 -14.3695 1.73697
33.9899 -13.9407 1.73697
33.4316 -12.2254 1.30815
32.4813 -10.9168 0.87934
32.0302 -7.93724 0.87934
33.1478 -5.79314 1.30815
33.1267 -5.36432 1.30815
32.8368 -3.22023 1.30815
32.4813 -1.93378 1.19212
31.1529 -1.07614 0.450521
30.0695 0.210313 0.021702
29.4796 2.01424 0.021702
27.3355 2.78322 -0.912072
25.1914 3.64086 -1.54293
14.4687 34.5158 -5.55293
16.5079 37.0887 -5.12412
43.6306 49.0956 4.4212
44.7271 50.8109 4.7387
45.1412 52.9549 5.16752
45.3458 54.6702 4.99466
45.3458 56.3855 4.92786
45.1774 57.2431 4.7387
44.4882 58.5296 4.57288
43.2018 59.816 4.07678
41.9153 61.1025 3.74951
40.6289 62.1065 3.02343
38.0559 62.9651 3.02343
35.2928 63.6754 2.16579
31.6237 64.2356 0.87934
27.3355 64.2626 -1.26476
25.1914 65.2629 -1.69357
23.4761 66.3028 -2.55121
22.2153 67.5348 -3.40884
20.4744 68.6643 -3.40884
18.7591 69.7798 -4.6953
17.0439 71.1202 -4.6953
15.9628 72.2518 -5.55293
16.1862 75.6823 -4.92626
16.615 76.1111 -4.76262
15.6062 78.2552 -5.12412
14.8998 79.5417 -5.43947
12.2657 81.2569 -6.41057
12.3268 81.6858 -6.36117
8.03867 81.6858 -8.11888
6.75221 82.8005 -8.55467
5.03694 84.0554 -9.84112
2.89285 84.8259 -10.2699
0.319943 85.8529 -11.1276
-2.68178 86.3029 -11.9852
-45.5636 72.3956 -28.2803
-47.7077 72.8774 -29.1379
-50.2806 73.7244 -29.9956
-52.8535 75.2535 -31.9519
-54.5688 75.916 -32.5685
-57.1417 76.5399 -33.6013
40.2 -52.5343 5.34362
35.4688 -53.0047 2.58627
35.2266 -52.1678 2.57031
35.0542 -49.9614 2.20026
34.4475 -48.675 2.16579
32.9101 -47.6095 2.59461
26.4778 -48.4146 -0.407117
33.6228 -17.8001 2.59461
34.1966 -15.991 3.02343
34.3805 -14.3695 3.02343
34.3855 -13.9407 3.02343
33.9332 -12.2254 2.59461
32.9847 -10.939 1.73697
33.3389 -7.64241 2.59461
33.9701 -5.79314 3.02343
33.9642 -5.36432 3.02343
33.6085 -2.79141 2.59461
33.4511 -1.93378 2.59461
32.4813 -0.0876607 2.16579
32.0525 1.06795 2.25508
31.1948 2.78322 1.914
29.3252 3.64086 0.87934
28.5 4.92731 0.87934
26.9067 6.21377 0.346238
23.4761 6.64258 -1.07628
15.7574 35.0406 -3.83766
17.2387 37.5175 -3.83766
40.2 47.8091 4.1326
42.7729 50.3012 5.16752
43.6306 52.5261 5.47477
44.1744 54.2414 5.59634
43.6306 55.5278 5.53924
43.6306 56.3855 5.42316
42.9396 58.5296 5.16752
42.3441 59.3136 5.16752
40.6289 60.4037 5.16752
39.7712 61.9601 3.99453
38.0559 62.9393 3.45225
35.483 63.8407 3.45225
32.4813 64.4448 2.16579
28.1931 64.5643 0.450521
26.4778 65.615 0.021702
24.0003 66.6771 -0.835936
22.6185 67.8065 -1.26476
20.6863 68.8212 -2.12239
18.6256 69.6788 -3.40884
20.4189 72.6806 -2.12239
19.6168 74.218 -2.55121
19.1061 75.2535 -2.55121
18.0737 76.5399 -2.98002
16.4871 77.8264 -3.83766
15.7117 79.5417 -3.83766
14.4709 80.5925 -4.6953
13.2554 81.6858 -5.12412
12.3268 83.1132 -5.12412
10.6316 84.2587 -6.41057
8.8963 85.5451 -6.47568
7.18103 86.8316 -7.04306
0.319943 85.8296 -9.84112
-2.68178 86.2755 -11.1276
-45.1507 72.2518 -26.9938
-47.7077 73.1094 -27.912
-49.8518 73.8886 -28.7091
-54.14 73.967 -30.5561
-55.8552 75.2535 -31.6683
41.1385 -53.2993 6.39464
40.4362 -51.6767 6.45397
39.7712 -50.594 6.45397
34.6571 -50.3902 3.45225
34.2876 -49.1038 3.45225
33.3389 -47.677 3.02343
26.4778 -48.2976 0.87934
33.6586 -17.8001 3.02343
34.1966 -16.1093 3.45225
34.4023 -14.3695 3.45225
34.3939 -13.9407 3.45225
33.938 -12.2254 3.02343
33.3389 -9.22369 3.97412
34.5536 -7.0796 4.30988
34.7657 -5.79314 4.30988
34.6678 -4.9355 4.30988
34.7063 -2.79141 4.30988
34.4695 -1.50496 4.30988
33.4994 -0.218506 3.88107
32.9864 1.49677 3.88107
32.2451 2.78322 3.45225
31.1948 4.4985 3.00089
30.766 5.78495 3.03199
29.5046 7.0714 2.59461
26.7997 7.92904 1.30815
23.2997 8.35785 0.021702
8.46749 30.6564 -5.42279
16.615 35.3734 -2.4361
17.9015 37.6931 -2.12239
38.9136 47.2092 5.16752
41.0577 49.9532 5.79066
41.9153 51.6685 6.1004
42.3674 53.8126 6.45397
42.3441 55.5278 6.25094
42.3441 56.8143 6.21679
41.4865 57.6719 6.13411
41.0029 58.9584 6.02516
40.2 60.2449 6.10298
38.9136 61.5186 5.59634
37.1983 62.6375 5.16752
35.483 63.9201 4.7387
32.614 64.533 3.02343
29.0508 64.8678 2.16579
26.8875 65.8195 1.30815
24.7626 66.8553 0.450521
22.8565 67.9636 0.021702
23.0473 70.9653 0.0353508
22.8799 71.3941 0.021702
20.8816 72.2518 -0.835936
20.3251 73.967 -1.26476
19.2605 75.2535 -1.69357
18.105 76.5399 -2.55121
16.4686 77.8264 -2.98002
15.7574 79.1128 -2.75796
14.4709 80.648 -3.83766
13.2746 82.1146 -4.26648
12.3268 83.1536 -3.83766
11.0404 84.4819 -5.12412
9.31215 85.5451 -5.55293
8.03867 87.0608 -5.55293
5.89458 87.9857 -6.41057
3.32167 88.5169 -7.26821
-44.841 72.2518 -25.2786
-47.2789 73.3272 -26.565
-49.423 74.0925 -26.9938
-53.7111 74.2769 -28.7091
40.7033 -53.0023 6.9526
40.3997 -51.6767 6.88279
39.7806 -50.3902 6.88279
34.2494 -50.7224 5.43962
33.8914 -49.094 4.29708
32.9545 -47.7111 4.71354
31.1948 -46.6503 4.30988
28.498 -24.6611 3.45225
31.4902 -20.373 4.30988
33.3389 -18.2289 4.05685
34.0263 -16.0848 4.30988
33.9403 -14.3695 4.7387
33.948 -13.0831 4.30988
33.5157 -12.2254 4.30988
33.8945 -9.22369 5.16752
34.8907 -7.0796 5.59634
35.0834 -5.79314 5.59634
35.101 -3.22023 5.59634
35.1119 -2.79141 5.59634
34.8514 -1.07614 5.59634
34.2429 0.210313 5.59634
33.7678 1.95861 5.16752
33.3389 3.20535 5.16752
32.0525 4.98481 4.7387
31.1948 6.21377 4.01348
30.3372 7.63398 3.88107
29.0508 8.88602 3.45225
26.9067 9.64431 2.87815
25.1914 10.9308 2.10332
21.7608 11.3948 0.87934
4.17931 23.7953 -5.63751
5.59431 25.5106 -5.12412
8.46749 28.9411 -4.59205
9.4421 31.0852 -3.83766
17.3521 35.8022 -1.26476
18.7591 37.8612 -0.407117
36.7695 46.5629 5.59634
39.3424 48.6668 6.62835
40.3746 51.2397 6.88279
40.8325 52.5261 6.88279
41.0577 53.8126 7.01595
41.0577 56.8143 7.03552
40.7952 57.2431 7.31161
40.2 58.9584 7.03776
39.3424 60.6737 6.56249
38.3773 61.5313 6.02516
36.9004 62.8178 5.59634
35.483 63.8101 5.59634
32.9101 64.6858 4.7387
29.4796 65.1054 3.45225
27.7382 66.2483 3.02343
25.6202 67.3195 2.16579
24.7626 69.25 1.88758
24.1039 70.1077 1.73697
23.256 71.3941 0.450521
21.332 72.4518 0.450521
20.257 73.967 -0.835936
19.0442 75.2535 -1.26476
17.4727 76.3129 -0.835936
16.1862 77.8571 -1.26476
15.5172 79.1128 -2.55121
14.0421 80.2253 -2.98002
13.1845 81.6858 -2.50243
12.0715 83.401 -3.83766
11.0404 84.5294 -4.26648
9.26597 85.5451 -4.6953
8.03867 87.0598 -4.26648
6.3234 88.118 -5.1489
3.75049 88.9789 -5.98175
1.60639 89.6231 -6.83939
-47.2789 73.1094 -25.0897
-49.423 74.2019 -26.1362
-53.2823 74.3494 -27.4227
40.0885 -53.3132 7.98288
39.9014 -51.6767 8.16924
39.7712 -50.5171 7.74043
38.4848 -49.1499 8.16924
33.2971 -49.0795 5.50251
32.8057 -47.788 5.19686
31.2598 -46.5309 5.16752
24.3338 -47.566 3.02343
30.766 -24.2323 5.51558
31.9361 -22.0882 6.02516
31.9674 -20.373 6.02516
32.9101 -18.3597 5.16752
33.3389 -16.5136 5.62429
33.4687 -14.3695 5.59634
33.3389 -13.9407 5.80663
33.1535 -12.6542 5.59634
33.7887 -9.22369 6.45397
34.9571 -7.0796 6.88279
35.0542 -5.79314 6.08269
35.1336 -3.22023 6.02516
35.1627 -2.79141 6.02516
35.0542 -1.2256 6.45397
34.4883 0.210313 6.88279
34.3232 1.92558 6.88279
33.7056 3.64086 6.45397
32.8224 4.92731 6.02516
32.3093 6.64258 6.02516
31.308 7.92904 5.59634
29.9084 8.91951 4.7387
28.6767 10.5019 4.7387
27.3355 11.7884 4.29587
24.3338 12.4669 3.02343
20.9032 12.646 1.68302
3.58669 19.9359 -4.6953
3.75049 20.7936 -4.61133
5.90488 24.2241 -3.83766
6.44595 26.3682 -3.83766
10.1828 29.1501 -2.12239
13.1845 32.3717 -1.21102
17.4727 35.8022 0.52881
19.1879 38.1406 0.87934
36.3407 46.427 6.88279
38.4848 48.7826 7.31161
39.3424 50.8109 7.82044
39.9322 52.9549 8.16924
40.2 54.6702 8.03727
40.2 56.3855 8.08986
40.2 57.2431 7.90034
39.3424 58.5296 7.8816
38.9136 59.816 7.54161
37.8007 61.1025 7.74043
36.7695 62.4281 6.88279
35.0542 63.8157 6.45397
32.9101 64.7822 6.02516
29.9084 65.2255 5.16752
28.1931 66.3322 4.30988
26.4778 67.5168 3.88107
25.7306 68.8212 3.45225
24.7626 70.3316 3.02343
23.0473 71.3941 2.15034
21.6503 72.6806 2.16579
20.4744 73.967 1.67037
18.3303 75.2174 0.021702
17.7015 76.5399 0.021702
16.6919 77.8264 0.021702
15.4395 79.1128 -0.835936
14.0689 80.3993 -0.835936
13.6157 82.1146 -1.26476
12.3268 83.1647 -2.12239
10.299 84.2587 -2.98002
9.2562 85.5451 -2.55121
8.03867 86.819 -3.83766
6.3234 87.9365 -4.26648
3.83308 88.9757 -5.12412
1.60639 89.7188 -5.55293
-2.25296 89.9503 -6.83939
-49.423 74.0153 -24.8498
-53.2823 74.3659 -26.1362
39.5549 -52.975 9.00813
39.3975 -52.1055 9.02688
39.1325 -50.3902 9.02688
38.4799 -49.1038 8.59806
32.9072 -49.3437 6.51472
32.185 -47.8161 6.45336
31.1948 -46.6082 6.45397
25.2955 -46.9597 4.7387
30.766 -25.9476 6.71754
32.4813 -23.8035 7.30513
32.9101 -21.7102 7.31161
33.1135 -21.2306 7.74043
32.7988 -18.2289 7.31161
33.0057 -16.5136 6.88279
33.0546 -14.7983 6.88279
33.0775 -13.5119 6.88279
33.0095 -11.3678 6.88279
33.8754 -9.22369 6.88279
35.0542 -7.0796 7.87857
35.2493 -5.79314 8.16924
35.2818 -3.22023 8.16924
35.2729 -2.79141 8.16924
34.9892 -1.07614 8.16924
34.5398 0.210313 8.16924
34.3483 1.92558 7.31161
33.9367 3.64086 7.74043
33.309 4.92731 7.74043
32.7817 6.64258 7.31161
31.9227 7.92904 6.88279
30.3372 9.76757 6.45397
29.2241 10.9308 6.02516
28.1931 11.852 5.59634
26.4778 13.3704 5.16752
23.4761 13.9325 4.02856
21.7608 14.7901 3.48508
17.4727 14.7901 1.87172
16.615 16.9342 1.51457
15.7574 17.7919 1.19597
10.3588 19.0783 -0.835936
10.3616 19.5071 -0.835936
8.46749 21.2224 -1.4951
5.68436 22.5089 -2.55121
7.06494 24.6529 -2.12239
7.60985 26.797 -1.92604
12.7629 30.2276 0.021702
15.3286 33.2293 1.02332
19.6168 36.5245 2.59461
19.9295 38.3751 2.59461
32.9101 45.0522 6.45397
37.4967 48.238 8.16924
38.1575 50.382 8.59806
38.9136 52.5261 8.68991
38.9136 54.2414 8.926
38.9136 55.9567 8.87409
38.9136 57.2431 8.71916
38.4848 58.1008 8.79512
38.0559 59.3872 8.67387
37.1983 61.1025 8.628
36.4215 62.389 7.74043
34.6254 63.5409 7.31161
32.9101 64.7167 6.45397
29.9084 65.3907 6.21948
28.1931 66.4406 5.59634
26.5198 67.5348 5.16752
25.7477 69.25 4.7387
24.8264 70.5365 3.88107
23.0473 71.5319 3.88107
22.1897 72.7924 3.45225
20.7493 73.967 2.16579
18.7591 75.3863 2.16579
17.5446 76.5399 0.87934
16.6639 77.8264 0.450521
15.486 79.1128 0.021702
14.198 80.3993 0.021702
13.6736 82.1146 -0.407117
12.3268 83.3619 -0.835936
10.6116 84.3411 -1.26476
9.75394 85.7065 -1.26476
8.03867 87.0562 -1.69357
5.46576 87.5738 -3.40884
3.32167 88.9757 -4.2368
1.60639 89.6411 -4.6953
-2.25296 89.9908 -5.55293
-49.9069 73.967 -24.4209
-53.2823 74.3802 -24.8498
38.8618 -52.9686 10.1186
38.6228 -52.5345 10.3117
38.6805 -50.3902 9.88452
37.8989 -49.5326 10.3133
36.3407 -48.3326 9.88452
32.0337 -47.7871 8.49762
31.4463 -46.5309 8.16924
29.4796 -45.6732 7.53085
24.3338 -45.6732 5.50547
32.2054 -27.234 8.59806
32.4271 -26.3764 8.59806
33.2489 -23.3747 9.02688
33.8178 -21.6594 9.02688
33.6402 -21.2306 9.02688
33.0998 -19.5153 8.59806
33.0024 -16.9424 8.16924
32.9833 -14.7983 7.74043
33.0212 -13.5119 7.74043
32.9536 -11.7966 7.74043
33.6397 -9.22369 9.02688
34.9204 -7.0796 8.59806
35.2035 -5.79314 8.59806
35.2726 -3.22023 8.59806
35.2751 -2.79141 8.59806
35.0243 -1.07614 8.59806
34.818 0.639132 9.4557
34.5344 1.92558 9.02688
33.9739 3.64086 9.02688
33.3346 5.35613 9.02688
32.9101 6.79556 8.16924
32.2063 8.35785 8.59806
31.1321 9.64431 8.16924
30.1163 10.9308 7.74043
29.0508 12.2321 7.31161
27.1377 13.5037 6.45397
25.6202 14.4889 6.02516
24.3338 15.6478 5.59212
19.7425 16.0766 3.88107
19.5267 17.363 3.88107
17.8747 18.6495 3.02343
16.615 19.9359 2.58437
13.6133 20.3648 1.60062
11.0404 21.2224 0.687925
10.1828 24.2241 0.397006
11.0404 26.3682 0.639579
13.1845 28.9411 1.28488
14.3439 31.0852 1.73697
15.7717 33.2293 2.16579
19.6168 36.2807 3.02343
20.9032 38.891 4.30988
21.886 40.948 4.7387
36.57 48.238 9.4557
37.2945 49.0956 9.4557
38.0559 52.0973 9.71553
38.1382 53.8126 9.88452
38.1315 54.2414 9.88452
38.1987 55.9567 9.88452
37.8894 57.6719 9.88452
37.3755 59.3872 9.4557
36.7695 61.1025 9.12986
35.483 62.1471 9.02688
34.1966 63.2471 8.59806
32.4813 64.3418 8.16924
30.1741 65.3907 7.74043
28.1931 66.4491 6.45397
26.584 67.5348 6.02516
25.8033 69.25 6.02516
24.9493 70.5365 5.59634
23.4853 71.8229 5.16752
21.9642 73.1094 4.30988
20.9032 74.1897 4.30988
19.4556 75.2535 3.45225
17.0439 76.2472 2.16579
16.1862 77.8626 1.73697
15.3286 78.9512 1.30815
14.2218 80.3993 1.73697
13.6133 82.0087 0.87934
12.3268 83.3098 0.87934
10.7106 84.2587 -0.407117
9.75394 85.7821 -0.407117
8.03867 87.1339 -0.407117
6.3234 88.04 -1.26476
2.96695 88.5469 -2.55121
-0.108876 89.0635 -4.26648
-2.25296 89.9204 -5.12412
-50.7094 73.5817 -23.5633
-53.2823 74.3456 -24.4209
38.0544 -53.0582 11.1575
38.056 -52.5362 11.1228
37.9051 -50.819 11.171
37.1983 -49.5326 11.1986
36.3407 -48.2898 10.3133
34.1966 -47.3885 10.6616
31.7146 -46.5309 9.4557
30.3372 -45.2444 9.01954
25.4867 -45.2444 7.31161
30.1684 -29.807 9.02688
32.3061 -27.234 9.88452
33.0803 -25.09 9.88452
33.7678 -23.0636 9.88452
34.295 -22.0882 9.88452
33.7678 -21.2306 10.1056
33.3389 -19.4451 9.4557
32.956 -16.9424 9.02688
32.8632 -16.0848 9.02688
32.8451 -14.3695 9.02688
32.6085 -11.7966 9.02688
33.5771 -9.22369 9.4557
34.4924 -7.0796 9.88452
34.6254 -5.79314 9.93221
35.0542 -3.22023 10.0265
35.1011 -2.79141 9.88452
34.8856 -1.07614 9.88452
34.8059 0.639132 9.88452
34.5564 1.92558 9.88452
34.143 3.64086 9.88452
33.6084 5.35613 10.3133
33.1116 6.64258 9.88452
32.2481 8.35785 9.88452
31.2993 9.64431 9.02688
30.518 10.9308 9.02688
29.233 12.2172 7.74043
28.1931 13.6228 8.16924
26.5169 14.7901 7.74043
24.7626 15.8924 6.45397
22.1897 16.7198 6.02516
20.7354 18.2207 5.59634
19.4977 19.5071 5.16752
17.9911 20.7936 4.30988
16.615 21.6545 3.88107
14.3901 22.5089 3.02343
13.1845 23.7953 2.69393
13.0367 26.797 2.59461
14.4709 29.2116 3.02343
15.3286 31.514 3.236
18.8423 34.5158 4.7387
19.3831 35.8022 3.88107
20.9032 38.8829 5.16752
21.9058 40.948 5.16752
34.6254 47.5538 9.88452
36.3407 49.0956 10.2604
36.8932 51.6685 10.7422
37.1983 53.3838 10.836
37.2325 54.6702 10.7422
37.3937 55.9567 10.7422
37.0565 57.6719 10.7422
36.3407 59.3872 10.4395
35.9118 60.6737 10.0964
35.0542 61.8588 9.88452
33.6846 63.2466 9.4557
31.6237 64.2133 8.59806
30.127 65.3907 8.16924
28.1931 66.5356 7.74043
26.9353 67.5348 7.74043
26.049 69.0042 7.31161
25.0703 70.5365 6.88279
23.9049 71.8727 6.45397
22.1897 72.7995 6.02516
20.9032 74.4247 5.59634
19.6168 75.3655 5.16752
17.4727 76.3758 4.30988
16.796 77.8264 3.88107
15.4452 79.1128 3.45225
14.2052 80.3993 2.16579
13.6133 81.8671 1.73697
12.3268 83.4651 2.16579
10.6116 84.2909 1.73697
9.75394 86.0466 1.30815
8.46749 86.9808 0.87934
6.3234 88.1275 0.021702
3.35837 88.5469 -2.12239
1.17758 89.5234 -2.12239
-3.53942 89.4977 -4.6953
-51.1382 73.4018 -21.4192
-54.1905 73.967 -23.5633
36.3526 -53.7047 11.5864
37.1983 -51.6767 11.9986
37.2454 -51.2479 12.0286
36.7695 -49.9614 12.3728
36.1644 -48.2461 12.4574
34.6254 -46.8222 12.0286
31.7349 -46.5395 9.88089
30.637 -45.2444 9.88452
27.864 -44.3868 9.02688
21.7608 -45.0268 6.88279
29.9735 -31.5222 10.3133
31.8417 -29.3781 10.7422
32.865 -27.234 11.171
33.13 -25.09 11.171
33.3863 -23.3747 10.7422
33.7678 -21.6594 10.6076
33.476 -21.2306 10.7422
33.2821 -19.0865 11.171
32.7891 -16.9424 10.3133
32.6986 -16.0848 10.3133
32.5109 -14.3695 10.3133
32.1884 -12.6542 10.3133
33.1726 -9.22369 10.7422
34.2867 -7.0796 11.171
34.4442 -6.22196 11.171
34.4855 -3.64905 11.171
34.6964 -2.3626 11.171
34.6254 -1.50496 11.1002
34.5919 0.210313 11.171
34.4094 1.92558 11.171
34.0716 3.64086 10.7422
33.6344 5.35613 10.7422
33.2103 6.64258 10.3133
32.5532 8.35785 11.171
31.3127 9.64431 10.7422
30.5913 10.9308 10.3133
29.4796 12.6806 9.88452
28.1931 13.9244 9.4557
26.9067 15.3723 9.02688
25.6202 16.3124 8.59806
22.6185 16.7826 6.45397
21.572 18.2207 6.88279
20.6517 19.5071 6.45397
19.4115 20.7936 6.02516
17.9015 22.315 5.59634
15.7574 23.055 4.7387
14.4709 25.0818 4.53593
14.4709 27.6547 4.52352
15.5109 29.7988 4.7387
16.1862 31.7647 5.16752
18.7591 34.37 5.16752
18.9631 34.9446 5.16752
20.7563 38.804 6.02516
22.1897 41.0178 7.31161
32.0525 46.5227 9.93567
34.6626 48.6668 11.171
35.483 50.8109 11.1821
36.2248 53.3838 11.5998
36.2503 53.8126 11.5998
36.3679 56.3855 11.5998
35.9118 57.2431 11.7474
35.6212 58.5296 11.5998
35.0542 60.271 11.171
34.1966 61.5313 11.1332
32.9549 62.8178 10.7422
30.8778 64.1042 9.4557
29.9084 65.1945 9.4557
28.1931 66.4815 9.4557
27.0304 67.5348 8.59806
26.049 69.0614 7.74043
25.1834 70.5365 7.74043
24.2363 71.8229 8.16924
22.6185 73.1986 7.31161
20.9277 74.3959 6.02516
19.6168 75.2954 6.45397
18.0423 76.5399 5.59634
17.0439 77.9657 4.7387
16.1862 79.341 5.16752
14.8998 80.7285 4.30988
13.1845 81.6858 2.84567
12.3285 83.401 2.59461
10.7568 84.2587 3.02343
10.1729 85.974 2.59461
8.46749 87.0497 1.30815
6.3234 88.2633 1.30815
3.32167 88.9059 -0.407117
1.17758 89.6649 -0.835936
-5.25469 89.0801 -2.98002
-51.5671 73.3038 -20.9904
-56.2841 73.2248 -23.1345
36.4697 -52.1055 12.8862
36.6613 -50.819 12.8862
36.5914 -49.9614 12.8862
36.2191 -48.2461 12.8862
35.0542 -47.0468 12.8862
33.3389 -45.9112 12.4574
30.5916 -45.2444 10.7422
28.6219 -44.2425 10.7422
23.4761 -44.2519 9.02688
28.1931 -34.0951 10.7023
30.4715 -31.951 11.5998
31.8706 -29.3781 11.171
32.9868 -26.8052 11.5998
33.1414 -25.09 11.5998
33.3389 -24.2323 11.6322
33.3204 -21.6594 12.0286
33.4077 -21.2306 12.0286
33.1972 -19.0865 11.5998
32.4813 -18.0175 12.4574
32.5033 -16.0848 11.5998
32.2182 -14.3695 11.5998
31.8659 -12.6542 11.171
32.4813 -9.56651 11.5998
33.7247 -7.50842 12.0286
34.1966 -5.79314 12.0073
34.3385 -3.64905 12.0286
34.3679 -3.22023 12.0286
34.1966 -0.218506 12.1933
34.353 0.639132 12.0286
34.1966 1.92558 12.0938
33.7962 3.64086 12.0286
33.4863 5.35613 12.0286
33.2145 6.64258 11.5998
32.5176 8.35785 12.0286
31.552 9.64431 11.5998
30.766 11.3596 11.4163
29.4932 12.646 10.7422
28.1931 13.95 9.88452
27.3355 15.2479 9.88452
26.049 16.2973 9.4557
23.4761 17.4531 9.02688
22.1897 18.4194 8.59806
20.9032 20.0818 8.16924
19.9796 21.2224 7.74043
18.7591 22.6276 7.31161
16.7129 23.3665 6.02516
15.6022 25.0818 6.02516
15.3286 27.2259 6.0993
15.9733 29.7988 6.02516
16.4875 31.9429 6.45397
18.5621 34.0869 6.45397
19.2134 36.231 7.31161
20.806 38.804 8.16924
23.1142 41.3769 9.02688
24.7626 43.8403 9.4557
34.1966 49.0956 11.972
34.6254 50.8109 12.2799
35.2754 52.9549 12.4574
35.3834 53.8126 12.4574
35.483 56.3855 12.4284
35.3799 57.2431 12.4574
34.9484 58.5296 12.4574
34.1966 59.816 12.2279
33.3389 61.5313 11.6844
31.6237 62.58 11.171
30.3372 63.6448 11.171
29.4805 64.9619 10.3133
28.2514 66.2483 9.88452
26.8782 67.5348 9.4557
25.823 69.25 9.88452
25.063 70.5365 8.59806
24.1168 71.8229 9.02688
23.1297 73.1094 8.59806
21.332 74.3021 8.16924
19.3257 75.2535 7.31161
18.7541 76.9688 7.31161
17.5939 78.2552 6.88279
16.615 79.4344 6.45397
15.3286 80.9814 6.02516
13.6133 82.1146 5.33319
12.7557 83.401 4.69203
11.7956 84.6875 4.7387
10.1983 85.974 3.02343
8.8963 87.115 3.45225
6.75221 88.2791 2.59461
3.75049 88.76 1.30815
1.60639 89.69 0.87934
-4.82588 89.1918 -1.69357
-52.8535 72.8643 -20.5616
-57.9993 72.6105 -21.4192
36.0286 -52.1055 14.1727
36.4444 -50.3902 14.1727
36.3407 -49.9614 14.2949
35.762 -48.2461 14.1727
35.0542 -47.0356 13.7439
33.3389 -45.9036 12.8862
31.5604 -44.8156 13.3151
28.6219 -44.2388 11.171
24.7626 -43.8445 10.7422
30.766 -33.0109 12.8862
31.4665 -31.951 13.3151
32.1173 -29.3781 13.3151
32.4813 -27.234 12.6452
32.4859 -25.5188 12.8862
32.7477 -24.2323 12.8862
32.9088 -21.6594 12.8862
32.9101 -21.2306 12.9825
32.656 -18.6577 12.8862
32.4601 -17.8001 12.8862
32.1447 -16.5136 12.8862
32.0525 -14.7983 12.5636
31.6237 -13.0831 12.3271
31.1948 -10.0213 12.4574
33.2902 -7.50842 12.8862
33.5571 -5.79314 13.3151
33.9757 -3.64905 13.3151
34.0857 -2.79141 13.3151
33.8492 -1.50496 13.3151
33.7678 1.49677 13.1297
33.7678 2.78322 13.0561
33.3389 3.21204 13.5704
33.3389 5.35613 13.017
33.034 6.64258 12.8862
32.3058 8.35785 13.3151
31.3578 9.64431 12.8862
30.934 11.3596 12.4574
30.0543 12.646 12.4574
28.6219 13.7359 12.0286
27.4836 15.2189 10.7422
26.049 16.5002 10.7422
23.9049 17.3452 9.88452
22.1897 18.6495 9.79073
21.332 19.9961 9.4557
20.5835 21.2224 9.02688
19.1879 22.9859 8.59806
17.4727 23.8433 8.16924
16.615 25.1696 7.74043
15.9256 26.797 7.31161
16.3833 29.7988 7.74043
16.615 31.8187 7.74043
18.3303 34.0869 7.44265
19.3894 36.231 8.59806
20.7761 38.804 8.59806
23.4761 41.5837 9.88452
24.4652 43.5209 9.88452
30.3372 47.6403 12.0286
33.3389 50.3999 12.8862
34.1966 52.5261 13.2658
34.4012 54.2414 13.3151
34.2679 55.5278 13.3151
34.1966 57.2431 13.3873
33.942 58.1008 13.3151
33.3389 59.3872 13.1027
32.0525 60.6737 12.519
30.766 62.389 12.0095
29.4796 63.2594 12.4574
28.6219 64.8542 11.171
27.3355 66.2483 10.9407
26.4778 67.8273 10.3133
26.049 69.0456 10.3133
25.1914 70.383 10.3133
23.934 71.8229 9.4557
23.0895 73.1094 9.88452
21.7608 74.5996 9.02688
20.0456 75.7035 9.02688
19.2343 76.9688 8.59806
18.0466 78.2552 7.74043
16.8655 79.9705 7.74043
15.7574 80.9244 6.88279
14.261 82.1146 6.88279
13.4333 83.8299 6.45397
12.3268 84.8972 6.02516
10.6116 86.2733 5.59634
8.58117 87.2604 3.88107
6.75221 88.3556 3.88107
3.75049 89.0334 3.02343
1.60639 89.74 2.16579
-2.25296 89.9141 0.450521
-53.7111 72.3814 -19.7039
-57.9993 72.5545 -20.9904
35.671 -52.5343 15.0303
35.6861 -51.6767 15.0303
35.483 -50.3902 15.5028
35.483 -48.675 15.2083
34.1966 -47.2857 15.0303
32.9608 -46.1021 14.1727
31.1948 -45.0251 14.1727
28.6219 -44.1705 13.3151
25.6202 -43.4314 12.4574
29.4796 -35.3816 13.7659
31.1948 -32.8087 13.5286
31.4632 -31.951 13.7439
31.9819 -29.3781 13.7439
32.6772 -27.234 15.0303
32.9714 -25.9476 15.0303
32.926 -23.3747 15.0303
33.0695 -21.6594 15.0303
33.158 -21.2306 15.0303
32.4813 -19.7302 15.0303
32.2507 -17.8001 13.7439
31.7734 -16.5136 13.7439
31.4806 -14.7983 13.7439
31.1948 -13.0831 13.6044
30.8685 -10.0813 13.3151
31.8698 -7.93724 13.7439
32.9101 -5.79314 14.1006
33.3389 -4.02567 14.1727
33.3513 -3.22023 14.6015
33.3589 -0.647325 14.6015
33.4297 0.210313 14.6015
33.3469 1.49677 14.1727
32.9701 4.4985 14.1727
32.9101 5.35613 14.2682
32.6257 6.64258 14.1727
32.1836 8.35785 13.7439
31.1587 9.64431 14.1727
30.8917 11.3596 13.3151
30.0206 12.646 13.3151
28.6219 13.7706 13.3151
27.3355 15.3255 12.8862
26.049 16.2585 11.5998
24.0199 17.363 11.5998
22.1897 18.6403 10.3133
21.6147 19.9359 10.7422
20.9698 21.6512 10.7422
19.9776 22.9377 10.3133
18.0107 23.7953 9.4557
17.0439 25.5137 9.02688
16.667 26.797 9.02688
16.7276 30.2276 9.02688
17.7561 32.3717 9.02688
18.073 33.2293 8.59806
19.6365 36.6599 9.02688
20.9722 38.804 10.7422
23.6586 41.3769 11.5998
24.2844 43.5209 11.5998
25.5147 45.665 11.5998
30.766 49.5244 13.48
32.4813 51.6685 13.823
32.9101 53.3838 14.1015
32.9101 55.5278 14.0542
32.9101 57.2431 14.042
32.4813 58.1008 13.9253
31.6237 58.9584 13.9438
30.766 60.2449 13.4653
29.9084 62.3577 12.8862
29.0784 63.2466 12.8862
28.0235 64.533 12.4574
27.0484 65.8195 12.0286
26.429 67.5348 11.5998
25.9074 69.25 12.0286
25.3779 70.5365 11.5998
24.2639 71.8229 11.171
22.8521 73.1094 10.7422
21.9838 74.8247 10.7422
20.9032 75.7895 9.88452
19.1879 77.0608 9.88452
18.4941 78.684 9.4557
17.6512 79.9705 9.4557
16.1862 81.0973 8.59806
14.847 82.5434 8.16924
14.0707 83.8299 8.16924
12.3268 85.1364 6.88279
11.0404 86.1451 6.45397
8.46749 86.9454 6.02516
6.75221 88.0512 5.16752
3.79181 88.9757 3.45225
1.60639 89.7697 2.59461
-1.82415 90.0796 2.16579
-56.8303 71.3941 -19.2751
34.9845 -52.9631 16.3168
35.0542 -51.2479 16.1849
35.0542 -50.3902 16.227
34.4873 -48.675 15.888
33.8567 -47.3885 15.888
32.4813 -46.2902 15.888
30.766 -45.1214 15.0303
28.6219 -44.082 14.6015
26.7643 -43.1003 14.1727
23.9049 -42.3044 12.8862
29.1649 -37.5257 15.0303
30.3372 -34.9521 15.0303
30.766 -33.2375 14.5801
32.4813 -30.5689 16.3168
32.7061 -29.807 16.3168
33.1099 -26.8052 15.888
33.1382 -26.3764 15.888
33.4369 -23.3747 16.3168
33.3389 -22.9005 16.3168
33.2868 -21.2306 15.888
32.5249 -19.9441 16.3168
31.7365 -18.2289 15.0303
31.1948 -16.0848 14.7157
31.0572 -14.7983 14.6015
30.766 -13.5119 14.6284
30.3372 -11.7966 14.6809
31.1948 -8.16877 15.0303
32.2025 -6.22196 15.0303
32.2702 -4.50669 15.0303
32.664 -2.3626 15.4592
32.9483 -0.647325 15.4592
33.0257 0.210313 15.4592
32.9407 1.49677 15.4592
32.4813 4.4985 15.0969
32.3276 5.78495 15.0303
32.0525 7.0714 15.0779
31.9269 7.92904 15.0303
31.1948 9.42654 14.6015
30.6478 11.3596 14.6015
29.9084 12.4615 14.6015
28.3018 13.9325 13.7439
27.3965 15.2189 13.3151
25.6202 16.2261 13.7439
23.9049 17.2097 12.4574
22.1897 18.4448 12.0286
21.6809 19.9359 11.5998
21.0627 21.6512 11.5998
20.1189 22.9377 11.171
18.3303 24.0626 10.7422
17.4041 25.5106 10.3133
17.9015 28.9319 10.7422
17.9015 30.2276 10.6891
17.9015 31.0852 10.8255
18.3303 34.3013 10.3133
19.7172 36.6599 10.3133
21.0941 38.804 12.0286
23.9049 41.7749 12.4574
24.1955 43.5209 12.0286
25.327 45.665 12.4574
27.2934 48.238 13.3151
29.9084 50.6839 14.1727
31.1948 52.9549 14.8479
31.6237 54.2414 14.7641
31.1948 56.3855 14.9496
31.1948 57.6719 14.7473
30.766 58.5296 14.5567
29.4796 59.816 14.3026
29.0508 61.9601 13.9167
28.405 63.2466 13.7439
27.7643 64.3323 13.3151
26.7526 65.8195 13.3151
26.1533 67.5348 12.8862
25.6202 68.8212 12.9169
25.2258 70.5365 12.4574
24.3338 71.8229 12.9462
23.0473 73.3267 12.4574
22.0734 74.8247 12.0286
21.4062 76.1111 12.0286
20.0456 77.4213 11.5998
18.6396 78.684 10.3133
17.9015 80.0198 10.3133
16.1862 81.138 9.88452
15.4285 82.5434 9.88452
14.2974 83.8299 9.02688
12.8053 85.1163 8.59806
11.0404 86.4263 8.16924
8.71417 87.2604 7.31161
7.60985 88.4064 6.88279
5.03694 89.2209 6.02516
1.60639 89.7284 4.30988
-1.82415 90.1155 3.45225
-57.9993 70.8078 -18.4175
34.3187 -52.9638 17.1742
34.1966 -52.5343 17.007
34.1966 -50.3902 16.9896
33.3389 -47.8173 16.9473
33.3744 -47.3885 16.7456
32.0525 -46.3048 16.3168
30.766 -45.166 15.888
29.2569 -43.958 16.3168
27.3355 -42.5801 15.4592
29.0922 -38.8121 16.3168
29.8172 -37.0969 16.3168
30.3372 -34.9528 16.7596
31.6175 -32.8087 17.1744
32.4851 -30.6646 16.7456
32.8053 -29.3781 17.6032
33.2416 -27.234 17.6032
33.3917 -25.09 17.6032
33.4345 -23.3747 16.7456
33.3389 -22.8455 16.7456
33.174 -21.2306 17.6032
32.4813 -19.9009 17.6032
31.7708 -18.2289 16.3168
30.6649 -16.9424 15.888
30.3372 -15.2271 15.9169
30.1008 -12.6542 15.4592
29.9084 -11.7966 15.4107
29.9084 -8.79487 15.8999
31.1948 -6.51559 16.3168
31.6237 -4.50669 16.3706
32.0788 -3.22023 16.3168
32.0525 -1.35194 16.3168
32.2781 -0.647325 16.3168
32.3041 2.3544 16.3168
32.0656 3.64086 16.3168
32.1537 4.4985 16.3168
31.76 6.21377 16.3168
31.1245 7.92904 16.3168
30.721 9.64431 15.888
30.3372 11.112 15.888
29.4796 12.5856 15.4592
27.9942 13.9325 15.0303
27.3355 14.9785 14.6015
25.6202 16.1421 14.1727
23.6046 17.363 13.7439
21.9126 18.6495 12.4574
21.6841 19.9359 12.4574
20.9586 21.6512 12.8862
20.1866 22.9377 12.0286
18.9306 24.2241 12.4574
18.9038 27.2259 12.4574
19.034 28.5123 12.4574
18.8872 29.7988 12.4574
18.5659 31.0852 12.0286
18.3303 34.3118 12.0286
19.6599 36.6599 12.4574
21.0692 38.804 12.4574
23.769 41.3769 13.3151
23.9049 43.5209 13.5165
24.1755 45.2362 13.7439
26.1407 47.8091 14.1727
27.3355 49.9532 14.974
28.6219 52.0973 15.1233
29.4796 54.2414 15.3628
29.4796 55.9567 15.3092
29.4796 56.8143 15.2669
29.0508 58.1008 15.1863
28.6219 59.3872 15.1537
28.2672 61.1025 15.0303
27.7643 63.2466 14.6254
27.0738 64.533 14.6015
26.6559 65.8195 14.1727
26.1269 67.5348 14.1727
25.6351 68.8212 15.0303
24.9843 70.5365 14.6015
24.1048 71.8229 13.3151
23.1471 73.1094 13.7439
22.4203 74.8247 13.7439
21.6931 76.1111 13.3151
20.4744 77.4112 12.8862
18.5621 78.684 11.171
17.9015 80.2586 11.171
16.1862 81.1336 10.7422
15.5384 82.5434 10.3133
14.0421 84.1245 9.4557
12.8939 85.1163 9.4557
11.1774 86.4028 9.4557
8.9308 87.2604 8.59806
7.60985 88.4559 7.31161
5.09848 89.4045 7.31161
2.03521 89.8333 5.87836
-2.25296 90.034 3.88107
32.8529 -53.4129 18.0686
32.9108 -52.5344 17.8
32.9101 -50.819 17.8165
32.5222 -49.5326 18.0321
32.0525 -47.3885 17.5134
31.2647 -46.5309 17.6032
30.3818 -45.2444 17.6032
29.1953 -43.958 17.6032
28.3626 -40.9562 17.1744
29.792 -38.8121 17.6032
30.3914 -36.668 18.0321
31.4338 -34.9528 18.4609
31.9787 -32.8087 18.4609
32.4813 -30.5223 18.4609
33.0554 -28.9493 18.8897
33.2321 -27.234 18.0321
33.443 -25.09 18.0321
33.3996 -24.6611 18.0321
33.3997 -22.0882 18.4609
33.2208 -21.2306 18.0321
32.4813 -19.5206 18.4609
31.6237 -18.4763 18.4609
30.3372 -17.1689 17.6032
29.6987 -15.656 16.7456
29.4796 -13.5119 16.4917
29.0508 -11.3678 16.3551
29.3486 -9.22369 16.7456
29.9084 -7.34276 16.7456
30.766 -4.9355 17.2322
31.1948 -3.64905 17.4749
31.3996 -1.50496 17.6032
31.675 -0.218506 17.6032
31.6237 1.16478 17.6032
31.337 4.06968 17.6032
31.3469 4.92731 17.6032
31.3274 6.64258 17.1744
30.7672 7.50022 17.6032
30.3372 9.21549 16.8252
29.6056 10.9308 17.1744
29.0508 12.2172 16.6111
27.7643 13.5037 16.1902
26.4778 15.0191 15.888
24.7626 15.8886 15.0303
23.4761 17.1541 14.6015
21.6524 18.2207 13.7439
21.4355 19.9359 13.7439
20.853 21.6512 13.3151
20.0417 22.9377 13.3151
19.0113 24.2241 13.3151
19.0238 27.6547 12.8862
19.1693 29.3699 13.3151
19.1825 29.7988 13.3151
18.9246 31.514 13.7439
18.5094 32.8005 13.3151
19.4416 36.231 12.8862
20.9032 38.8855 14.1727
23.721 41.3769 14.6015
23.7973 42.2345 14.6015
23.9616 45.2362 14.6015
24.7626 47.2827 15.0303
26.4778 49.6446 15.4592
27.4393 51.6685 15.888
27.7643 53.3838 16.158
27.7643 54.2414 16.2456
28.1931 57.2431 16.0204
27.7643 57.6719 16.3304
27.7961 60.2449 15.888
27.591 61.1025 15.888
27.3355 62.389 15.753
26.6312 64.533 15.4592
26.3932 65.8195 15.4592
25.9958 67.5348 15.4592
25.5066 68.8212 15.888
25.0473 70.5365 15.0303
24.3338 71.9935 15.4592
23.5263 73.5382 15.4592
22.6185 75.02 15.0303
21.764 76.1111 13.7439
20.5186 77.3976 13.3151
19.1879 78.8444 13.7439
17.9 79.9705 12.4574
16.3898 81.2569 12.4574
15.7574 82.9622 12.4574
14.4709 84.0288 12.0286
13.0011 85.1163 10.7422
11.1302 86.4028 10.3133
9.17889 87.2604 9.88452
7.64461 88.5469 9.4557
5.46576 89.3382 8.59806
2.46403 89.9487 6.45397
-2.68178 89.8333 5.52476
32.1092 -52.9632 18.8896
31.7441 -51.2479 18.8897
31.6237 -48.675 18.6345
31.3611 -48.2461 18.8897
30.8373 -46.5309 18.4609
30.1465 -45.2444 18.4609
29.0508 -43.958 18.4146
29.2694 -40.5274 18.4609
29.9452 -38.8121 18.4609
30.766 -36.668 19.0977
31.7537 -34.524 19.3185
32.4626 -32.3799 19.3185
32.5525 -31.951 19.3185
32.9101 -28.9493 19.4371
33.1133 -26.8052 19.3185
33.1317 -25.09 19.3185
33.1208 -24.6611 19.3185
33.0971 -22.517 19.3185
32.9036 -21.2306 19.3185
32.4813 -19.6252 18.8897
31.3383 -18.2289 18.4609
