ply
format ascii 1.0
element vertex 2072
property float x
property float y
property float z
element face 0
property list uchar int vertex_indices
end_header
75704.1 74351.7 165.999
75732.9 75019.6 131.219
75787.2 75502.6 131.355
75584.2 75895.4 131.265
75670 76671.9 131.062
75836.9 77143.9 130.407
76066.3 77497 129.909
75794 78082.3 129.228
75579.6 78614.6 128.692
75892.4 79038.3 128.402
75668 79669 127.834
76045.1 80048.7 127.712
75955.6 80388.1 127.488
75899.5 80760.7 127.348
75930 81648.9 127.424
75910.5 82058.1 127.375
75751.2 82623.6 126.977
75624.6 83058.7 126.66
75579.6 83287.4 126.548
75838.9 84130.7 170.078
75951.2 84671.8 126.405
75929.6 85079.1 126.351
75897.2 85475.5 126.27
75858.1 85865.1 126.172
75785.4 86650.1 125.99
75756.8 87050.4 125.919
75726.9 87449.2 125.844
75627.8 88245.3 125.69
75645.8 88654.6 125.641
75622.7 89060.3 125.584
75594.4 89460.9 125.513
75570 89865.2 125.452
75997.3 90721.3 125.448
75985.9 91138.7 125.42
75976.5 91558.2 125.396
75973.6 91984.2 125.389
75983.1 92422.5 125.413
76015.4 92883.5 125.493
75586.8 93312.6 125.494
75692.9 93847.5 125.759
75782.1 94365.5 125.982
75752.1 95193.1 125.907
75684.6 95554.4 125.738
75628.9 95927.7 125.599
75583.2 96739.5 125.485
75592.8 97178 125.509
75609.9 97623.9 125.552
75628.5 98071.4 125.598
75717.7 98537 125.69
75770.9 99071.4 177.412
75720.9 99450.1 125.829
75759.2 99917.3 125.925
75946.3 100424 126.119
75840.9 100857 126.129
75894.2 101339 126.262
76033.1 102311 126.548
76061.1 102792 126.68
75779 103168 126.548
75572.4 103590 126.53
75655 104101 126.736
75798.5 104674 127.095
75922.7 105014 127.406
76052.9 105357 127.731
75693.1 105855 127.904
75771.2 106790 128.099
75602.4 107050 176.991
75680.6 107557 127.872
75680.6 107986 127.872
75705.3 108440 127.934
75754.8 108918 128.058
75903.4 109429 128.263
75903.6 109924 128.43
75739.2 110618 175.189
75579.6 111050 128.692
75633 111369 128.825
75732.6 111898 129.074
75953.7 112516 129.55
75765 113117 129.979
75781 113661 130.268
75840.6 114150 130.416
75878.9 114617 130.512
75596.7 115004 130.407
76008.4 115600 130.836
75641.9 116095 176.018
75645.7 116528 131.001
75776.8 117088 131.329
75915.5 117655 131.676
75782.9 118263 177.149
75726.2 118752 132.275
75904.1 119359 132.719
75959.6 119721 177.577
75579.6 119933 132.98
75740 120481 133.381
75922.7 121087 133.838
75665.4 121747 134.267
75695.4 122294 134.696
75569.5 122884 135.099
75751.2 123409 135.553
75922.7 123877 135.982
75637 124009 177.577
75665.4 124438 136.411
76008.5 125102 137.268
75665.4 125780 138.555
75804.3 126120 138.902
75958.4 126703 139.287
75579.6 127296 139.413
75751.2 127706 139.841
75922.7 128095 140.27
75665.4 128643 140.699
75836.9 129023 141.128
75579.6 129467 141.557
75922.7 130213 142.414
75737.2 130770 143.023
75836.9 130975 143.272
75751.2 131671 144.13
75922.7 131992 144.558
75767.1 132515 145.242
75751.2 133142 146.274
75665.4 133475 147.131
76008.4 134291 147.989
75751.2 134679 148.418
75922.7 134980 148.847
76008.4 135661 150.133
75751.1 136035 152.706
75665.4 136628 153.564
76008.4 137037 154.421
75922.7 137644 155.279
76008.5 138114 156.565
75922.7 138847 159.567
75836.9 139008 160.425
75836.9 139590 164.713
75620.2 140087 167.387
75922.7 140816 168.143
75778.2 141103 179.575
75790.4 141590 179.721
75874.5 142057 179.815
75917.1 142528 179.922
75585.8 143054 180.166
75646 143544 180.316
75713.5 144040 180.485
75793.2 144548 180.684
75922.7 145289 181.008
75982.6 145595 181.158
75665.4 146213 181.437
75770 146669 181.698
76008.5 147820 182.294
75649 148263 182.468
75751.2 148751 182.723
76008 149395 183.152
75570.7 149900 183.344
75665.4 150230 183.581
75836.9 150775 184.01
76008.4 151283 184.438
75751.1 151967 184.867
75922.7 152398 185.296
75658.5 152990 185.708
75836.9 153336 186.154
76008.5 153619 186.583
75751.2 154179 187.011
75665.4 154886 187.869
76008.5 155176 188.727
75591.8 155656 189.155
76271.9 48022.2 137.697
76258.3 48279.5 137.268
76112.3 48794.1 136.411
76266.2 49222.9 136.411
76155.3 49909 135.982
76409.3 50395.6 136.126
76111.5 51023.9 135.553
76120.2 51392.9 135.404
76559.9 51832.6 135.431
76384.4 52514.9 134.992
76265.8 52939.3 134.696
76128.9 53545.8 134.353
76551.5 53968.3 134.338
76562 54407.6 134.364
76261 54797.6 134.267
76094.2 55292.6 134.267
76114.9 55675.8 134.318
76092.5 56511 134.262
76523 56844.4 159.996
76252.1 57528.3 133.589
76180 57709.7 133.409
76469.1 58602.9 133.06
76445.3 59008 133
76385.1 59428.8 132.98
76436.7 59857 132.979
76289 60566.9 132.61
76200.5 60907.3 132.388
76152.6 61288.2 132.269
76093 62086.2 132.12
76205.4 62516.2 132.123
76094.2 62945.9 132.123
76570.4 63421.3 132.241
76080.5 63789 132.088
76435.7 64573 131.904
76409 64975.1 131.837
76409.7 65404.7 131.839
76436.4 65860.2 131.906
76474.3 66326.9 132.001
76487.4 66768.8 132.034
76443.4 67582.4 131.924
76430.6 67998.5 131.891
76419.8 68416.5 131.865
76419.8 68845.3 131.864
76448.4 69302.7 131.936
76122.1 69834.1 165.426
76481.1 70621.9 132.018
76351.5 70930.9 131.694
76534.7 71533.1 131.08
76454.1 71881.3 130.878
76380.3 72665.2 130.694
76392.5 73106.2 130.724
76439.3 73581.7 130.841
76520.2 74091.5 131.044
76132.6 74561.6 131.147
76239.6 75097.4 131.414
76288.8 75575.4 131.537
76271.7 75987.1 131.494
76227 76371.2 131.383
76437.3 77040.6 130.836
76542 77543.9 130.026
76268 78127.5 129.341
76180 78340 129.121
76354.5 79071.6 128.485
76265.7 79339.7 128.263
76528.6 80103.3 127.848
76436 80439.6 127.617
76395.5 80828 127.516
76396.5 81257.7 127.518
76351.5 82184.7 127.406
76289.6 82437.3 127.251
76080.4 83085.7 126.728
76498.2 83503.6 126.7
76467.4 83901.5 126.623
76416.2 84708 126.495
76398 85118.7 126.45
76368.5 85517.9 126.376
76329.7 85907.9 126.279
76254.9 86690.8 126.092
76229.1 87093.8 126.028
76199.8 87493.3 125.954
76167.7 87890 125.874
76112.8 88692.7 125.737
76089.7 89098.5 125.679
76523 89388.9 172.86
76379.9 89960.6 125.69
76523.1 90535 125.69
76513.2 90808.4 125.666
76495.5 91648.4 125.621
76523 92148.9 175.004
76548.6 92533.5 125.69
76409.1 92962.3 125.69
76092.5 93389.4 125.686
76213.5 93939.3 125.989
76300.2 94454.9 126.205
76313.3 94896.7 126.238
76223.9 95664.9 126.015
76170.3 96040.2 125.881
76411.8 96710.5 176.87
76115.2 97271.5 125.743
76130.7 97715.8 125.782
76159.2 98173.2 125.853
76419.2 98708.5 126.119
76231.5 99103.1 126.034
76291.7 99592.1 126.184
76292.6 100022 177.645
76446.8 100595 126.548
76331 101024 126.548
76216.4 101453 126.548
76117.5 101882 126.548
76366.1 102668 177.828
76331.7 102911 126.977
76261.4 103340 126.977
76301.3 104319 127.28
76315.9 104762 177.703
76460.1 104906 127.677
76238 105542 177.508
76248.7 105998 128.263
76329.5 106491 128.423
76124.6 106856 128.263
76209.7 107658 128.123
76198.5 108075 128.095
76215.3 108521 128.137
76265.7 109055 128.263
76324.3 109488 128.41
76400.3 109992 128.6
76483 110504 128.806
76561.4 111011 129.002
76129.5 111437 128.995
76233.5 111970 129.255
76447.2 112612 129.789
76094.2 112950 129.979
76265.7 113471 130.407
76518.7 114317 130.836
76332.2 114746 130.836
76179.3 115175 130.836
76214.8 115810 176.378
76136.4 116161 131.156
76260.8 116714 131.467
76351.5 117223 131.694
76480.1 117791 132.015
76080 118248 132.087
76286.6 118863 132.551
76467.9 119463 132.98
76078.7 119962 133.156
76351.5 120896 133.838
76384.3 121179 178.006
76523.1 121425 134.267
76265.8 122079 134.696
76234.1 122465 178.006
76180 123242 135.553
76513.1 123666 135.982
76252.2 124266 136.411
76265.8 124722 136.84
76506.3 125038 137.268
76094.2 125544 138.555
76265.8 125954 138.984
76437.3 126539 139.413
76177.7 127351 139.836
76351.5 127787 140.27
76523 128184 140.699
76094.2 128470 140.699
76437.3 129201 141.557
76180 129733 141.985
76143.3 130184 184.438
76094.2 130558 142.843
76437.3 131253 143.701
76166.6 131628 144.096
76351.5 131976 144.558
76221.6 132541 145.306
76180 133108 146.274
76094.2 133471 147.131
76437.2 134275 147.989
76566.7 134601 148.312
76351.5 135013 148.847
76265.7 135516 149.704
76313.3 136063 150.895
76265.7 136657 153.992
76180 137251 154.85
76094.2 137816 155.708
76437.3 138076 156.565
76180 138693 159.138
76523 139126 159.996
76265.8 139506 164.713
76437.3 140236 167.286
76180 140670 167.715
76523 141138 168.572
76199.5 141524 179.556
76309.7 142492 179.831
76376.4 142987 179.998
76456.6 143497 180.199
76535.6 144004 180.396
76139.3 144466 185.838
76196.3 144523 180.62
76294.2 145049 180.865
76349.7 145534 186.364
76523 146101 181.437
76221.2 146692 181.754
76346.8 147246 182.068
76467.2 147795 182.369
76114.8 148300 182.56
76249.6 148864 182.897
76351.5 149235 183.152
76079.6 149981 183.544
76174.5 150596 184.01
76244.2 151110 189.584
76179.9 151724 184.867
76351.5 152147 185.296
76395.3 152568 185.725
76097.7 153168 186.154
76095.3 153940 187.011
76351.5 154106 187.44
76094.2 154586 187.869
76211.8 155227 189.155
76597.3 48451 137.697
76610.7 48708.3 137.268
76640.5 49394.4 136.84
76928.6 49823.3 136.84
76988.3 50545.8 136.502
76883.8 50870.2 136.241
76625.7 51469.7 135.595
76959 51802.9 135.357
76783 52484.6 134.917
76699.5 52829.9 134.708
76578.8 53566.8 134.406
77075.9 53635.1 134.577
76780.3 54298.9 157.423
76592.3 54866.8 134.44
76619.3 55322.7 134.507
76612.9 55745 134.491
77007.6 56568.5 134.406
76956.9 56946.7 134.279
76780.3 57448.1 133.838
76608.8 57879.2 133.409
76868.2 58144.4 160.859
76925.4 59059.3 133.129
76924.6 59487.3 133.127
76923 59914.5 133.123
76881.2 60301.5 133.018
76698 60976 132.56
76635.1 61341.9 132.403
76592.2 61727.8 132.296
77027 62591.4 132.311
77039.2 63032.4 132.341
77044.4 63466.5 132.354
77015.8 63866.7 132.282
76900.8 64609.3 131.995
76877.9 65015.1 131.938
76882.3 65448.5 131.949
76911.9 65906.8 132.023
76903.1 66375.6 132.123
76821.6 66804.4 132.123
76914.2 67624.4 132.028
76904.4 68043.5 132.004
76903.6 68471.5 132.002
76964.3 68960.9 165.387
76932.3 69377.3 132.123
76663.3 69806.1 132.123
76589.5 70235 132.123
76857.9 70998.7 131.888
77037.6 71583.9 131.265
76935.7 71934 131.01
76893.3 72320.6 130.904
76783.6 72722.1 130.836
76895 73179.9 130.909
77068.8 73837 166.857
76608.8 74504.7 131.265
76620.6 74694.7 166.857
76931.4 75209.3 131.694
76780.3 76166.7 131.694
76742.4 76457.8 131.599
76866.1 77192.5 130.836
77020.9 77593.9 130.151
76780.3 78036.3 129.55
76608.8 78429.7 129.121
76866.1 79029.5 128.692
76694.5 79571.4 128.263
77000.5 80146.5 127.956
77037.1 80611.9 168.785
76874.9 80878.5 127.642
76877.7 81310.1 127.649
76859 82149 127.602
76762.6 82481.4 127.361
77061.6 83209.2 127.037
77005 83581.4 126.895
76973.5 83978.7 126.816
76953.1 84387.3 126.765
76905.6 85197.4 126.647
76860.8 85586.7 126.548
76831.8 85981.2 126.462
76793.1 86371.3 126.365
76760.9 86767.9 126.285
76878.5 87314.3 170.533
76678.4 87971.9 126.079
76640.5 88362.7 125.984
76609.7 89189.6 125.907
76584.8 89593.6 125.845
77060.6 90132.1 126.119
76866.1 90271.4 173.718
76780.3 91354.3 174.576
76605 92104.7 125.69
76627.1 92637.6 175.265
76694.6 92973.7 175.433
76631.9 93499.9 125.962
76745.8 94042.8 126.247
76822.4 94548.1 126.439
76846.1 95000.6 126.498
76825 95408.4 126.445
76790.4 95802.5 126.359
76599.9 96564.4 126.119
76662.9 96993.2 126.119
76642.3 97422 126.119
76753 97909.2 126.265
76794.2 98379.3 126.368
76820.6 98834.6 126.434
76918 99789.5 126.678
76608.5 100166 126.548
76770.6 100500 177.767
77037.7 100996 126.977
76671.4 101625 126.977
76812 101828 177.871
76688.1 102561 127.175
76732.3 103034 127.286
76780.3 103560 127.406
76621.1 103940 127.406
76886.3 104475 127.671
76951.8 104843 127.834
76638.2 105513 128.122
76778.3 106082 128.473
76846.8 106579 128.644
76837.3 106999 128.62
76790.5 107381 128.503
76716.8 108165 128.319
76694.6 108754 175.433
76772.1 109078 128.457
76831.7 109566 128.606
76903.5 110067 128.786
76979.9 110572 128.977
77037.6 110933 129.121
76640.8 111519 129.201
76746.6 112054 129.465
76997.4 112734 130.092
76743.4 113337 130.53
76805.5 113399 176.783
76880.5 113889 130.836
76925.5 114377 130.985
77068.4 115377 131.342
76660.4 115827 131.394
76893.9 115947 176.72
76811.1 116407 131.771
76951.9 116986 132.123
76761.7 117405 132.123
76626.8 118366 132.382
76876.7 118616 178.033
76816.8 119034 132.98
76996.9 119635 178.435
76641 120064 133.409
76780.3 120642 133.838
76951.9 121134 134.267
76835.4 121865 134.696
76596.2 122379 178.864
76887.4 122486 135.178
76604.4 123061 135.542
76596.6 123837 179.293
76951.9 124054 136.411
76694.6 124610 136.84
76866.1 124965 137.268
76951.8 125482 138.555
76815.2 126274 139.285
76971.9 126859 139.677
76608.8 127119 139.841
76746 127491 140.184
76951.8 128026 140.699
76694.6 128586 141.128
76866.1 128952 141.557
76650 129498 141.985
76951.8 130102 142.843
76694.5 130760 143.272
76866.1 131092 143.701
76608.8 131587 144.13
76951.8 132240 144.987
76742.7 132585 145.416
76608.8 133071 146.274
76694.5 133825 147.56
76866.1 134287 147.989
77037.6 134689 148.418
76780.3 135009 148.847
76694.6 135532 149.704
77037.6 136056 150.562
76694.6 136487 151.848
77037.6 137041 154.85
76725.7 137559 155.708
77037.6 138059 156.994
77037.6 138827 159.138
76780.3 139033 159.567
77037.6 139534 161.282
76866.1 140218 167.286
76987.4 140597 167.589
76780.3 141034 168.143
77005.7 141901 179.427
76694.5 142399 179.721
76785.8 142968 179.95
76866 143447 180.15
76970.4 144010 180.411
76608.8 144450 180.579
76694.5 144634 186.154
76780.3 145251 181.008
76865.8 145621 181.222
76922.1 146222 187.014
76674.4 146716 181.815
76834.2 147305 182.215
76985.5 147850 187.929
77037.6 148088 182.723
76780.3 148962 183.152
76683.4 149481 188.735
76892 149566 183.581
76694.6 150311 184.01
76882.2 150783 184.479
77037.6 151166 184.867
76679 151625 190.871
76951.9 152209 185.725
76694.5 152781 186.154
77037.6 153281 187.011
76608.8 153584 187.011
76694.6 154376 188.298
76691.1 154626 188.727
77209.1 48847.6 138.126
77466.4 49194.3 137.697
77199.6 49899.5 137.03
77518.9 50218.7 136.756
77303.5 50861.1 136.218
77466.4 51315.8 135.553
77294.9 51897 135.124
77185.9 52458.7 134.852
77119.4 52821 134.686
77089.7 53220.2 134.611
77380.7 53629.7 155.708
77104.9 54521.7 134.649
77079.8 54969.1 134.696
77123.4 55547.3 134.696
77098.5 55801.9 134.633
77454.3 56586.4 134.451
77196 56941.6 159.996
77209.1 57574.7 133.838
77087.7 57935.1 133.534
77497.9 58345.3 133.488
77501 58742.7 161.282
77414.7 59548.5 133.28
77413.2 59975.9 133.276
77371.1 60362.6 133.171
77183.3 61032.5 132.701
77109.7 61387.6 132.517
77349.3 61627.3 163.134
77511 62217.8 132.448
77505.2 62640.8 132.434
77512.9 63506.1 132.453
77482.7 63904.8 132.378
77380.7 64622.6 132.123
77571.2 65089.1 132.123
77554.3 65518 132.123
77341.6 65946.8 132.123
77427.6 66422.6 132.24
77437.8 66861.5 132.265
77415.5 67268.1 132.21
77297 67662 132.123
77394.1 68533.2 132.156
77115.8 68948.5 132.123
77461.3 69458 132.324
77488.9 69914.3 132.393
77491.5 70345.8 132.4
77380.7 70978.2 132.123
77409.7 71349.9 131.694
77535.5 71676.2 131.438
77396.7 72395.1 131.091
77385.7 72812.9 131.063
77402.4 73258.4 131.105
77547.2 73751.3 131.265
77540.3 74253.9 131.45
77153.5 74724.9 131.555
77282.4 75282.5 131.877
77317.2 76175 131.964
77268.1 76554.6 131.841
77174 76889.5 131.606
77552.2 77566.1 130.407
77380.7 77812.7 129.979
77551.4 78553.4 129.333
77318.4 79177.9 128.751
77211.7 79500 128.484
77488.9 80205.9 128.105
77409.2 80555.1 127.906
77374.4 80949.1 127.819
77319.6 81384.3 127.834
77261.4 81813.1 127.834
77272.3 82562.2 127.563
77153.9 82872.7 127.267
77559.4 83707.1 127.209
77271.8 84042.9 126.977
77298.9 84471.8 126.977
77530.9 84965 127.138
77358.6 85329.4 126.977
77495.9 86187 126.977
77440.2 86589.5 126.911
77108.8 86873.2 126.548
77160.1 87302 126.548
77276.5 88141.1 126.502
77240.8 88534.3 126.413
77219.7 88941.9 126.36
77380.7 89574.5 172.86
77552.2 90000.7 173.289
77123.4 90416 126.119
77110.1 90976.5 126.086
77151.9 91418.5 126.119
77174.1 91847.4 126.119
77152.5 92276.2 126.119
77152.7 93163.2 126.192
77198.4 93637.7 126.307
77275.1 94143.2 126.498
77291.9 94763.4 176.291
77333.3 95059 126.644
77106.5 95449.5 126.548
77298.7 95882.1 126.557
77283.8 96724.8 126.52
77260.1 97129.9 126.461
77260.7 97559.3 126.462
77278 98005.4 126.506
77304 98460.3 126.571
77084.2 98880.1 126.548
77354.1 99368.1 126.696
77380 99822.7 126.761
77451.6 100752 126.94
77502.1 101231 127.066
77112.9 101700 127.165
77559.6 102146 127.21
77575.8 102591 127.25
77201.7 103082 127.406
77262.6 103565 127.539
77288.2 104019 127.603
77325.7 104485 127.697
77398.6 104987 127.879
77479.6 105497 128.082
77205.3 106080 128.468
77294.9 106504 128.692
77353.8 107087 128.839
77144.9 107456 128.692
77234.3 108253 128.541
77238.8 108687 128.552
77389.9 109172 128.692
77334.9 109641 128.792
77405.7 110140 128.969
77483.1 110646 129.163
77565.1 111157 129.368
77148.3 111598 129.398
77267.2 112146 129.695
77380.7 112466 129.979
77552.2 112897 130.407
77242.1 113407 130.704
77331 113925 130.926
77377.9 114400 131.044
77427.3 114879 131.167
77509.9 115390 131.374
77203.8 115942 131.68
77380.7 116694 132.123
77469.9 117065 132.346
77102.2 117555 132.499
77216.8 118099 132.785
77096.1 118606 132.98
77558.5 119298 178.665
77099.6 119697 133.564
77107.2 120235 133.838
77380.7 120489 134.267
77201.2 121093 178.864
77256.2 121436 134.696
77294.9 122212 135.124
77466.4 122591 135.553
77209.1 123407 135.982
77380.7 123867 136.411
77552.2 124214 136.84
77123.4 124485 136.84
77466.4 125010 137.697
77552.2 125740 138.984
77257 126324 186.583
77294.9 126443 139.413
77466.4 127102 139.841
77174.5 127490 140.184
77459.1 128204 140.895
77089.4 128726 186.154
77352.6 128955 141.701
77209.1 129544 142.414
77552.2 130181 143.272
77572.7 130613 143.701
77240.3 131127 185.725
77209.1 131764 144.558
77380.7 132087 144.987
77123.4 132517 145.416
77209.1 133123 146.702
77123.4 133797 147.56
77294.9 134274 147.989
77451 134628 148.379
77209.1 134989 148.847
77552.2 135531 149.704
77466.4 136055 150.562
77380.7 136523 151.419
77466.4 137054 152.706
77552.2 137530 156.136
77209.1 138136 157.423
77294.9 138499 158.709
77209.1 139081 159.567
77466.4 139620 161.282
77466.4 140056 163.426
77466.4 140720 167.715
77209.1 141031 168.143
77466.4 141510 169.859
77300.9 142197 185.525
77552.2 142607 179.721
77297 143479 180.155
77152.7 144227 186.214
77568.3 144608 180.834
77169.2 145107 181.008
77422.1 145707 181.437
77544.5 146300 181.846
77169.4 146782 181.981
77352.2 147394 182.438
77533.5 148004 182.891
77150.2 148478 183.005
77290.7 148621 188.716
77339 149096 183.477
77465.6 149738 184.01
77294.9 150419 184.438
77466.4 150797 184.867
77202.6 151539 185.296
77380.7 151855 185.725
77552.2 152116 186.154
77295 152721 186.583
77281.4 153083 187.011
77552.2 153651 188.298
77125.3 154369 189.155
77858.9 49272.3 137.606
77981 49957.9 136.84
77783.4 50483.2 136.346
77637.9 50874.8 135.982
77837.2 51394.7 135.408
77723.7 51862.7 135.124
77638.8 52482.8 134.912
77600 52872.8 134.815
77723.7 53214.4 154.421
77592.4 53722.8 134.796
77618.7 54177.9 134.862
77644.8 54632.8 134.927
77627.5 55473.2 134.884
78025.5 55871.1 134.807
77638 56292.3 159.567
77876.9 57009.1 134.435
77817.7 57370.5 134.267
77637.9 57778.6 133.838
78003.6 58422.1 133.68
77954.5 58801.9 133.557
77922.8 59199.1 133.478
77895.2 60082.8 133.409
77854.5 60417.2 133.307
77664.2 61084.6 132.831
77595.1 61444.2 132.659
77629.4 61830.2 132.551
78004 62281.9 132.609
77925.7 62687.8 132.551
77842.3 63545.5 132.551
77976.2 63969.5 132.54
77919.4 64341.5 132.397
77843.1 65122.8 132.207
77845.4 65554 132.212
77876.6 66014 132.29
77918 66484.2 132.394
77927.9 66922.8 132.419
77903 67326.8 132.356
77861.9 68143.4 132.254
77873.9 68584.1 132.284
77908.1 69047.2 132.369
77638 69274.2 165.999
77996.5 69993.1 132.59
78002.2 70427.8 132.605
77695.5 71092.6 132.123
78066.8 71660 131.694
77588.5 72036 131.265
77841.1 72464.9 131.265
77926.5 72893.7 131.265
77905.2 73332.5 131.29
77957.9 73813.9 131.422
78066.8 74394 131.694
78029.5 75172 168.05
77829 75400.3 132.171
77882.4 75882.6 132.305
77809.5 76597.2 132.123
77638 77155.2 131.694
77979.2 77694.6 130.403
77816.9 77961.1 129.997
78066.8 78554.8 129.55
77895.3 79005.9 129.121
77695.3 79554.7 128.621
78068.2 79927.6 128.481
77907 80624.1 128.078
77881.6 81027.5 128.015
77895.3 81470 128.049
77913.7 81917.2 128.095
77892.3 82324.7 128.041
77701.7 82991.8 127.565
77638 83240.4 127.406
77856.4 83785.6 127.406
77916.2 84643.3 127.406
77935.7 85072.1 127.406
78068.7 85502.8 127.41
78032.9 85895.9 127.321
77972.7 86693.2 127.17
77900.8 87050.2 126.991
77870.1 87448.3 126.914
77777.8 88213.7 126.683
77624.9 88588.4 126.548
77716.4 89009.8 126.53
77679.1 89401.5 126.436
78066.4 90217.6 126.333
78058.2 90638.1 126.312
78051.6 91060.4 126.296
78050.3 91487.9 126.292
78050.8 91917.2 126.294
77636.3 92360.3 126.329
77655.8 92808.7 126.378
77725.2 93735.7 126.552
77766.4 94205.7 126.655
77783.2 94651.3 126.697
77771.2 95068.2 126.667
77747.1 95472.9 126.606
77717.3 95871.8 126.532
78071 96654.5 126.344
78062.7 97074.9 126.323
78067.6 97508.6 126.336
77700.3 97999 126.489
77723.7 98358.3 126.548
78056.9 98880.1 126.548
77760.9 99346.1 126.641
77814.8 100258 126.776
77848.2 100720 126.859
77891.7 101192 126.968
77930.2 101659 127.064
77950.7 102109 127.115
77968.8 102556 127.161
78008.4 103024 127.26
78049.8 103511 127.406
77697.2 103999 127.554
77743.4 104474 127.669
77809.5 105016 127.834
77877.6 105466 128.005
77873.4 105998 128.263
77711.6 106587 128.662
77814.9 107119 128.92
77835 107568 128.97
77811.5 107973 128.911
77764.3 108783 128.793
77790.7 109239 128.859
77845 109722 128.995
77922.7 110228 129.189
78003.3 110738 129.391
78066.8 111140 176.72
77661.2 111682 129.608
77799.4 112249 129.953
77981 112729 130.407
77731.9 113039 176.954
77725.4 113462 130.84
77784.6 113950 130.988
77818.6 114412 131.073
77895.2 115121 131.265
77939.1 115390 131.375
78055.4 115936 131.665
77809.5 116634 132.123
77929.6 117096 132.423
78064.5 117660 132.76
77723.7 118033 132.98
77895.2 118612 133.409
77625.5 119365 133.807
77596.6 119806 178.864
77786 119954 134.208
77981 120544 134.696
77598.7 121054 134.812
77813.5 121697 135.349
77716.3 122208 135.553
77771.7 122808 135.982
77635.9 123408 181.437
77819.4 123418 136.436
77659.1 124009 181.866
77589.3 124609 137.268
77967.6 124952 138.126
78024.9 125768 139.093
77690.7 126291 139.33
77813.8 126843 139.638
77895.2 127142 139.841
77999.1 127457 140.101
77839.4 128155 140.774
77981 128499 141.128
77895.2 129232 141.985
77638 129540 142.414
77981 130199 143.272
77895.2 130918 144.13
78066.8 131258 144.558
77638 131473 144.558
77884.9 132156 145.416
77723.7 132531 145.845
77809.5 133218 147.131
77981 133645 147.56
77723.7 134242 147.989
77895.3 134628 148.418
77809.5 135231 149.275
77981 135496 149.704
77895.3 136038 150.562
77809.5 136513 151.419
77895.2 137119 152.706
77981 137563 153.992
77809.5 138051 157.852
77723.7 138522 158.709
78066.8 139200 159.567
78060.2 139618 160.853
77981 140061 162.569
77981 140501 164.713
77638 141048 168.143
77789.1 141827 179.242
77941 142408 179.621
77635.8 142960 179.93
78048.5 143383 186.331
77769.8 143523 180.265
77735.7 144078 180.579
77868.5 144921 186.941
77737.7 145206 181.257
77918.5 145816 181.709
77712.6 146908 182.294
77906.8 147520 182.752
78066.7 148012 183.152
77637.9 148333 183.152
77809.5 148836 183.581
78003.2 149331 184.065
77653.7 149566 190.013
77723.7 150048 184.438
78010 150625 185.154
77595 151067 185.189
77811.8 151882 186.154
77895.3 152527 187.011
78066.8 152661 187.44
77638 153085 187.44
77580 153769 188.727
78097.4 49510.8 137.131
78339.6 49753 136.664
78495.6 50548.1 135.982
78365.1 51065 135.656
78282.3 51411 135.449
78212.9 51770.4 135.275
78120.7 52535.9 135.045
78097.5 52941.5 134.987
78099 53371.8 134.99
78280.6 53854.1 135.124
78157.1 54287.5 135.136
78152.5 54921.8 135.124
78092.7 55509.6 134.975
78477.8 55894.7 134.866
78418.1 56263.8 134.716
78356.5 57059.8 134.562
78301.6 57433.7 134.425
78083.8 58073.5 133.88
78526.4 58516.2 133.915
78473.7 58892.3 133.783
78432.6 59280 133.68
78407.6 60112.7 133.618
78363 60496.8 133.506
78264.9 60827.5 133.261
78085.6 61506 132.813
78532.9 61953.3 132.859
78490.9 62340 132.754
78472.2 62750.1 132.707
78487.5 63194.2 132.746
78466.9 64031.3 132.694
78433.3 64403.1 132.551
78152.5 65134.5 165.142
78334.7 65185.5 132.364
78369.4 66078 132.45
78424.2 66561.5 132.587
78247 66976 132.551
78369 67404.8 132.551
78377.6 67801.3 132.471
78352 68204.6 132.407
78409.8 69144.7 132.551
78109.7 69548.9 132.551
78514.7 70082.5 132.814
78518.8 70515.6 132.824
78465.6 70891.2 132.691
78162.1 71445.2 131.932
78453.6 72165.5 131.589
78409.7 72550.6 131.479
78392.8 72962.4 131.437
78413.6 73412 131.489
78495.6 74037 131.694
78573.7 74429.7 131.889
78209.7 74923.4 132.051
78364.1 75506.7 132.437
78409.8 75952.2 132.551
78557.8 76410 132.551
78238.3 77174.4 132.123
78152.5 77605.3 130.836
78313.1 78028.5 130.165
78170 78314.2 129.808
78324.1 79179.8 129.121
78178.3 79609 128.756
78581.4 79902.7 128.692
78400.4 80688.7 128.24
78531.8 81127 128.263
78412.1 81558 128.269
78425 81999.8 128.301
78432.6 82413.4 128.263
78143.4 83099.6 127.834
78191.1 83481.2 127.716
78141.5 83860.4 127.592
78115.4 84263 127.527
78570.8 85147.4 127.594
78527.7 85533.1 127.486
78495.6 85859.8 127.406
78408 86699.7 127.187
78353.1 87073.7 127.049
78301.8 87451.3 126.921
78577 88155.3 126.537
78547.4 88554.4 126.463
78518.9 88954.7 126.392
78496.2 89361 126.335
78457.4 90179.8 126.238
78444.5 90595.6 126.206
78437.2 91017.1 126.188
78431.6 91440.3 126.174
78434.6 91872.2 126.181
78448 92314.4 126.215
78085 92809 126.379
78122.6 93275.4 126.473
78206.7 94217.3 126.683
78210.2 94649.6 126.692
78575.3 95014.6 126.533
78523.3 95391.5 126.403
78476 96201.8 126.285
78469 96623.7 126.267
78474.4 97057.8 126.281
78492.6 97504.9 126.326
78087.4 97957.2 126.385
78119.8 98418.5 126.466
78273.1 98880.1 126.548
78158 99314.4 126.562
78219.5 100233 126.715
78268.1 100711 126.837
78323.4 101195 126.975
78364.2 101665 127.077
78385.3 102115 127.13
78407.4 102565 127.185
78452.4 103039 127.298
78495.6 103363 127.406
78132.8 104006 127.571
78194.6 104497 127.725
78250.5 104981 127.865
78308.6 105468 128.01
78409.8 106100 128.263
78507.6 106525 128.508
78278.2 107153 129.006
78368.3 107672 129.231
78178.3 108057 129.121
78323.6 108485 129.12
78386.7 108914 129.121
78370.7 109819 129.237
78439.8 110317 129.41
78519.1 110825 129.608
78086.9 111250 129.6
78182.2 111774 129.838
78172.8 112194 176.985
78353.2 112374 130.266
78581.4 112936 130.836
78215.9 113523 130.995
78256.4 113993 131.096
78282.1 114447 131.16
78409.8 115207 177.577
78411.5 115434 131.484
78203.2 116512 132.035
78353.8 117092 132.411
78495.7 117662 132.766
78152.5 117983 132.98
78384.4 118838 133.56
78495.6 119251 133.838
78131.3 119442 133.999
78409.8 119969 179.721
78468.7 120637 134.843
78581.4 121030 135.124
78324.1 121694 135.553
78495.6 122196 135.982
78409.8 122500 181.866
78306.8 123048 136.582
78581.4 123778 137.268
78152.5 124081 137.268
78231.7 124523 187.44
78121.3 125124 138.555
78530.3 125845 139.285
78269.4 126324 139.413
78260.1 126861 139.681
78350.5 127268 187.869
78495.6 127570 140.27
78238.3 128065 140.699
78409.9 128467 141.128
78324.1 129289 141.985
78495.6 129674 142.414
78238.3 129974 142.843
78332.1 130613 143.701
78566.1 131455 144.735
78238.3 131628 144.987
78581.4 132230 145.845
78324.1 132464 146.274
78238.3 133094 147.131
78143 133605 185.487
78541.9 134004 147.89
78390 134709 148.583
78238.3 135192 149.275
78581.3 135698 150.133
78324.1 136001 150.562
78238.3 136498 151.419
78324 137141 152.706
78409.8 137636 153.992
78289.5 138039 157.98
78581.4 138591 158.709
78495.6 139259 159.567
78409.8 139530 160.425
78238.3 140015 162.14
78238.3 140502 164.284
78324.1 141148 167.715
78558.3 141676 168.143
78430.2 142433 186.168
78108.5 143004 180.04
78324.1 143760 180.579
78463.7 144217 180.928
78107.2 144718 181.109
78287.1 145327 181.559
78409.8 145732 181.866
78122.1 146448 182.218
78219.5 146702 188.252
78324.1 147112 182.723
78418.7 147680 183.152
78238.3 148457 183.581
78393.3 148880 184.01
78581.3 149233 184.438
78152.5 149661 184.438
78236.3 150081 184.867
78422.7 150853 185.725
78269.5 151453 186.154
78581.4 151564 186.583
78324.1 152127 187.011
78408.5 152568 187.869
78234.2 153083 189.155
78956.4 49051.4 142.414
78838.7 49422.2 136.84
78629.5 50042.8 136.317
78968 50381.3 136.091
78881.1 50723.3 135.874
78752.9 51330.2 135.553
78681.2 51809.9 135.374
78639.3 52196.8 135.269
78605.2 53020.4 135.184
78616.9 53460.8 135.213
78649.1 53921.9 135.294
78680.8 54382.3 135.373
78674.2 54804.6 135.357
78924.4 55230.4 159.567
78938.9 55926.9 134.946
78885 56301.8 134.811
78860.6 56706.3 134.75
78801.3 57504.6 134.602
78667.1 57943.6 134.267
78595.3 58156.2 134.087
78987.9 58977.6 133.997
78791.2 59343 133.838
78843.6 59771.8 133.838
78868.2 60573.3 133.697
78773.1 60906.9 133.46
78595.7 61587.2 133.016
79044.3 62035.9 133.066
78920.7 62341 164.918
78970 62819.1 132.88
78659.1 63288.1 165.142
78967.1 64102.7 132.873
78904.4 64468.8 132.716
78773.8 64831.9 132.551
78827.7 65249.7 132.524
78883.4 65689.6 132.551
78867.3 66147.1 132.623
78949.3 67086.6 132.828
78941.8 67508 132.809
78906.3 67901.3 132.721
78660.8 68262.5 132.551
78618.2 68691.3 132.551
78939 69220.4 132.802
78993.3 69703.6 132.938
78873.3 70578.1 132.98
78984.2 70981 132.915
78702.9 71521.4 132.123
78865.6 71720 167.996
78993.8 72636.4 131.694
78985.3 72697.2 168.296
78924.5 73532.2 131.694
78989 73987.4 131.855
78924.4 74434.2 168.143
78667.1 74751.1 132.123
78899.2 75612.9 132.703
78933.4 76075.9 132.788
78897.6 76469 132.699
78838.6 76872.8 132.551
78667.1 77569.8 132.123
78838.7 78055.7 130.407
78658.6 78373.9 129.957
78879.8 79024 129.438
78664 79665.8 128.899
79010.2 80163.9 128.692
78951.2 80381.8 128.545
78893.2 81181.6 128.4
78911.3 81628.5 128.445
78920 82065.9 128.467
78888.3 82463 128.387
78770 83202.5 128.092
78713.7 83574.9 127.951
78667.1 83955.1 127.834
78623.6 84342.4 127.726
78972.7 85120.4 127.526
78924.4 85435.7 127.406
78876 85881.4 127.285
79060.1 86615.8 126.977
78714.6 87006.5 126.881
79077.4 87369.2 126.716
79075.3 88159.6 126.548
78978.5 88556.8 126.469
78952 88959 126.403
78926.6 89362.6 126.339
78888.4 90181.9 126.244
78867.9 90590.3 126.192
78853.6 91004.7 126.157
78843.4 91423.4 126.131
78909.8 91847.4 126.119
78842.5 92280.2 126.129
78951.4 93246.7 126.401
79010.1 93538.4 126.548
78652.4 94234.1 126.726
78637.9 94648.4 126.689
79016.4 95026.9 126.564
78954.1 95393.5 126.408
78911.8 96208.8 126.302
78918.4 96644.2 126.319
78934.7 97089.4 126.359
78958 97541.5 126.418
78813.1 97825.4 177.514
79041.2 98482.3 126.626
78603.4 98902.2 126.603
78624.5 99352.1 126.656
78650.2 99806.5 126.72
78752.9 100743 126.977
78811.8 101255 127.124
78847.4 101719 127.213
78871.9 102172 127.274
78899.2 102628 127.343
78952.7 103111 127.476
79031.9 103619 127.674
78607.4 104052 127.685
78684.6 104558 127.878
78737 105039 128.009
78781.7 105513 128.121
78813.5 105998 128.263
78938.4 106527 128.513
78752.9 107303 129.121
78877.6 107753 129.433
78913.2 108217 129.522
78898.7 108631 129.485
78863.4 109025 129.397
78865.4 109456 129.402
78904.5 109924 129.5
78969.9 110418 129.663
78603.4 111338 129.819
78607.8 111771 177
78711.6 111875 130.09
78636.2 112657 177.071
78642.2 113092 177.086
78850.7 113631 131.265
78752.9 114060 131.265
78618.1 114489 131.265
78832.2 114997 131.463
78905.3 115518 131.694
79066.5 116089 132.049
78665.6 116546 132.119
78817 117126 132.497
78972.3 117710 132.886
78643.9 118239 133.137
78794.4 118819 133.513
78798.7 119252 179.622
78951.7 119405 133.906
78706.9 120018 134.366
78838.7 120481 134.696
79048.9 121217 135.221
78752.9 121611 135.553
78924.4 122176 135.982
79012.7 122468 136.203
78782.6 123095 136.699
79010.2 123731 137.268
78752.9 124169 137.697
78902.2 124501 138.071
78838.7 125199 138.984
79010.2 125802 139.413
78620.1 126363 139.509
78734.7 126907 139.796
78915 127087 188.489
78978.4 127579 140.405
78667.1 127965 140.699
79010.2 128739 141.557
78752.9 129236 141.985
78956.4 129701 142.494
78667.1 130036 142.843
79010.2 130724 143.701
78752.9 131040 144.13
78667.1 131675 144.987
78838.6 132013 145.416
78965.4 132712 146.805
78667.1 132977 147.131
78838.6 133475 147.56
79010.2 134077 147.989
78752.9 134525 148.418
78667.1 135161 149.275
79010.2 135659 150.133
78924.4 136190 150.991
78838.6 136687 151.848
78752.9 137134 152.706
78667.1 137494 153.564
78924.4 138074 155.279
79086.1 138836 158.899
78752.9 139027 159.138
78838.6 139581 160.425
78667.1 140073 162.14
78924.4 140583 163.855
78741 141493 167.685
78924.4 141911 168.143
78838.6 142087 169.001
78752.9 143450 180.579
79044.9 143820 181.008
78863.8 144317 187.397
78678.5 144861 181.465
78774.3 145309 187.892
78919.2 145530 182.067
78838.4 146469 188.708
78739 146636 182.689
79021.4 147348 183.394
78674.1 147680 189.584
78667.1 148040 183.581
79010.2 148796 184.438
78667.1 149155 192.157
78661.1 149652 184.867
78808.7 150229 192.743
78667.1 150585 185.725
78915.6 151196 186.583
78752.9 151699 187.011
78793 152139 187.869
78667.2 152562 190.013
79581.8 48422.3 142.986
79455.7 48725 142.67
79267.5 49493.3 136.84
79096 49925.4 136.411
79421.1 50405.6 136.152
79353.2 50630.1 135.982
79218.8 51452.7 135.553
79130.5 51830.3 135.425
79103.8 52232.4 135.358
79098.9 52656.5 135.346
79109.3 53095.6 135.372
79397.9 53596.8 135.553
79119.3 54454.4 135.553
79168.6 54870.2 135.52
79107.9 55238.3 135.369
79429.5 55988.8 135.101
79371.7 56359.7 134.956
79349.3 56766.2 134.9
79300.6 57575.2 134.778
79206.6 57910 134.543
79095.9 58300.7 134.267
79506.4 59067.3 134.221
79476.2 59466 134.145
79466.7 59885.3 134.122
79454.1 60301.5 134.09
79286.1 60991.2 133.67
79181.7 61309.2 133.409
79106.2 61669 133.22
79100.6 62430.5 132.98
79209.2 62859.3 132.98
79169.7 63288.1 132.98
79509.8 63787.7 133.157
79411.9 64547.4 132.912
79355.3 64919.7 132.771
79334.3 65327.4 132.718
79333.6 65755.7 132.717
79368.6 66219.5 132.804
79495.9 66718.7 132.98
79337.2 67147.5 132.98
79430.5 67996.6 132.959
79422.1 68417.1 132.938
79439 68962 132.98
79463.7 69316.3 133.042
79509 69790.3 133.155
79546.6 70256.7 133.249
79506.7 71074.5 133.149
79267.5 71491.5 132.551
79323.9 71950.2 132.123
79471 72325.3 131.988
79104.4 73065.2 131.694
79432.6 73573.3 131.892
79562.4 74094.3 132.123
79096 74488.7 132.123
79170 75123.6 132.551
79529.4 75385.4 168.584
79516.2 75723.9 132.98
79439 76291.2 132.98
79358.1 76929.3 132.778
79207.8 77636.7 132.402
79439 78050.3 130.836
79153.8 78440.3 130.123
79353.2 79128 129.55
79260.6 79404.8 129.318
79535.2 80108.2 128.933
79451.5 80453.3 128.723
79408.5 80839.3 128.616
79584.7 81298.5 128.692
79397.6 82114.7 128.589
79342.5 82488.4 128.451
79216.8 83220.5 128.137
79586.2 83589.8 127.988
79524.7 83992 127.834
79424.1 84714.2 127.583
79353.2 85157.2 127.406
79315.1 85462.8 127.31
79231.8 86237.1 127.102
79286.7 86615.8 126.977
79120.3 86983.3 126.823
79554.7 87417.7 126.837
79481.3 88201.9 126.654
79447.4 88596.8 126.569
79526.4 89104.6 171.792
79390.3 89397.3 126.426
79351.9 90216.5 126.33
79334.2 90627.6 126.286
79315.8 91038.1 126.24
79297.3 91448.3 126.194
79288.9 91868.8 126.173
79293.9 92302.7 126.185
79410.9 93277.2 126.478
79529.5 93824.6 126.774
79565.3 94718.1 126.864
79501.8 95083.4 126.705
79439 95353.7 126.548
79382.5 96250.6 126.407
79392.7 96689.6 126.432
79414.8 97140.6 126.487
79439 97566.8 126.548
79150.8 98022.4 126.548
79521.9 98534.2 126.755
79575.5 99016.6 126.889
79123.3 99422 126.831
79261.7 99909.2 126.977
79216.8 100373 127.065
79269.1 100854 127.195
79353.2 101763 127.406
79175.7 102225 127.406
79433.8 102734 127.607
79493 103222 127.755
79567.4 103725 127.941
79122.6 104138 127.901
79205.4 104650 128.108
79259.7 105133 128.244
79113.3 105570 128.263
79346 106077 128.46
79417.8 106578 128.639
79553.4 107142 128.978
79341.5 107788 129.52
79454.6 108330 129.803
79439 108765 175.862
79432.8 109165 129.749
79129.9 109515 129.55
79444.9 110035 129.779
79590.3 110544 129.979
79280.7 110973 129.979
79139.1 111445 130.086
79267.4 112002 130.407
79439 112448 130.836
79181.7 113185 131.265
79255.6 113705 131.45
79268.5 114147 131.482
79290.4 114598 131.537
79355.8 115092 131.7
79472.8 115638 131.993
79271.4 115947 178.864
79207 116658 132.4
79351.7 117232 132.762
79439 117554 132.98
79135 118302 133.292
79120 118434 179.721
79353.2 119099 133.838
79459.7 119484 134.104
79392.5 120149 181.866
79306.9 120618 134.794
79439 121078 135.124
79226.7 121824 135.666
79353.2 122215 135.982
79524.8 122764 136.411
79267.5 123269 136.84
79439 123766 137.268
79181.7 124177 137.697
79353.2 124563 138.126
79267.5 125175 138.984
79439 125631 139.413
79532.1 125989 139.645
79122.2 126436 139.693
79242.3 126985 139.993
79524.7 127719 140.699
79328.1 128358 141.279
79439 128599 141.557
79341.7 129069 141.985
79353.2 129504 142.414
79095.9 130004 142.843
79370.9 130544 143.53
79181.7 131085 144.13
79524.8 131819 144.987
79306.7 132196 145.514
79101.2 132499 146.274
79524.8 132968 147.131
79267.5 133468 147.56
79338.8 134043 147.989
79181.7 134476 148.418
79095.9 135098 149.275
79439 135606 150.133
79353.2 136129 150.991
79267.5 136629 151.848
79181.7 137108 152.706
79524.8 137488 153.564
79353.2 138093 155.279
79494.4 138816 158.848
79181.7 139069 159.138
79524.8 139529 159.996
79353.2 140057 161.711
79181.7 140517 163.426
79439 141021 165.142
79181.7 141734 167.715
79423.1 142105 168.143
79134.6 142619 180.15
79181.7 143087 180.579
79218.2 143826 187.469
79096 144385 181.437
79444.9 144592 181.866
79399.2 145153 182.195
79252.8 145683 188.717
79181.7 146195 182.723
79181.4 146822 183.152
79096 147446 190.013
79538.5 147594 184.01
79439 148336 184.438
79517.8 148794 184.867
79103.8 149223 184.867
79524.7 149727 185.725
79095.9 150161 185.725
79096.6 150595 186.154
79181.7 151240 187.011
79162.7 151710 187.869
79953.6 47956.8 142.843
79782.1 48117.4 142.414
80039.3 49019.1 141.985
79610.5 49228.6 137.697
79696.3 49760.4 136.84
79953.6 50332.9 136.411
79779.1 50763.7 135.975
79632.9 51475.2 135.609
79675.6 51624.3 150.991
80008.1 52279.2 135.475
80015.3 52715.2 135.493
79610.5 53270 135.553
80039.3 53643.3 156.994
79683.9 54099 135.737
79673.4 54946.2 135.71
79650.1 55312.1 135.553
79936.5 56067 135.296
79808.4 56427 135.124
79851.9 56839.9 135.085
79974.4 57284.7 135.124
79634.5 57970.8 134.696
79613.9 58317.3 134.49
80068 58771.2 134.553
79765 59514.6 134.267
79822.2 59943.4 134.267
79884.1 60372.2 134.267
79616.8 61058.2 133.838
79700.6 61405.6 133.634
79610.6 61834.7 133.409
79827.6 62173.2 133.409
80016 63007.4 133.351
80030 63450.2 133.386
80054.2 63888.5 133.409
79642.4 64488.8 165.999
79867.8 65029 132.98
79850.2 65414.5 132.936
79856 65849.2 132.951
79894 66316 133.046
79944.6 66795.4 133.172
79970.8 67250.4 133.238
79939.9 68077.1 133.16
79932.3 68498.5 133.141
79948.8 68943.8 133.183
79867.8 69396.6 167.286
80052.4 69904.9 133.442
79849.7 70320.7 133.409
80025.2 71164.3 133.374
79882.3 71450.2 133.016
79663.9 71693 132.551
79809.4 72379 132.123
79931.8 72786.1 132.068
79953.6 73604.2 132.123
79647.2 74094.4 168.572
79790.6 74523.1 168.572
79696.3 74800.2 132.551
79910.9 75295.1 132.98
79961.6 75817.6 133.215
79935.8 76649.5 133.15
79881.5 77010.3 132.98
79792.3 77363.6 132.791
79867.8 78174.8 130.836
79696.3 78395.7 130.407
79864.2 79150.9 129.755
79753.4 79468.8 129.478
80039.3 80104.2 129.121
79951.8 80524.8 128.902
79916.7 80918.6 128.814
79920.2 81351 128.823
79867.8 82199.9 128.692
79791.8 82508.9 128.502
79640.9 83215.8 128.125
80028.3 83603.1 128.021
79978 83981.6 127.895
79929.1 84361.4 127.773
79837.3 85127.3 127.544
79782.1 85530.2 127.406
79740.3 85887.9 127.301
79642.6 86647.8 127.057
79716.8 87044.7 126.977
80050.4 87484.6 127.004
80009.8 87872.7 126.903
79931.9 88652.4 126.708
79901.3 89050.7 126.632
79873.3 89451.6 126.562
79852.5 89859.6 126.51
79824.6 90689.2 126.44
79809.3 91102.7 126.402
79788.2 91510.4 126.349
79776.4 91927.6 126.319
79776.6 92356.5 126.32
79815.1 92823.8 126.416
79916.5 93354 126.67
80027.8 93894.2 126.948
80033.7 94757.7 126.963
79972.1 95125 126.809
79908.2 95489.8 126.649
79869.1 95879.5 126.551
79865.5 96304.8 126.542
79905.8 97202.7 126.643
79932.9 97658.7 126.711
79966.1 98120.6 126.794
79750.8 98334.2 177.714
79817.4 99258.4 177.88
79837.9 99707.7 177.931
79673.1 99971.7 127.133
79723 100450 127.258
79809.4 100938 127.406
79837.1 101422 127.543
79882.9 101897 127.658
79925.4 102368 127.764
79889.6 102825 127.834
80076.4 103806 128.141
79646.7 104234 128.139
80069.3 104656 177.438
79774.6 105219 128.459
79816.7 105690 128.564
80039.3 106200 176.291
79934.3 106665 128.858
80067.4 107199 129.121
79784.8 107802 129.557
79809.7 108256 175.717
79895.5 108400 129.979
80013.6 109317 130.129
79843.8 109686 129.979
80002.3 110164 130.1
80048.8 110639 130.217
79870.6 111319 176.941
79720.7 111573 130.407
79853.1 112159 130.799
80039.3 112607 131.265
79738.4 113330 131.585
79790.2 113811 131.714
79727.7 114232 131.694
79819.5 114698 131.787
79901 115208 131.991
80031.9 115768 132.318
79619 116213 132.358
79758.4 116781 132.707
79907.8 117359 133.08
79610.6 118154 133.409
79683.2 118421 133.591
79953.6 118924 181.437
80019.7 119615 134.432
79696.3 120260 134.696
79949.8 120750 135.124
80039.2 121350 135.553
79610.5 121612 135.553
79782 122144 135.982
79906.1 122503 136.292
79633.4 123088 136.682
79874.9 123759 137.286
80039.3 124174 137.697
79701.7 124443 137.925
79953.6 124953 138.555
79867.8 125555 139.413
80039.6 126067 139.841
79593.3 126908 189.112
79876 127096 140.27
79953.6 127567 140.699
79696.3 128090 141.128
79867.8 128465 141.557
79610.5 128983 141.985
79953.6 129720 142.843
79696.3 130235 143.272
79905.9 130651 143.796
79610.5 131028 144.13
79953.6 131744 144.987
79703 132163 145.433
80039.4 132644 146.274
79953.6 132970 147.131
79867.8 133950 147.989
80039.4 134334 148.418
79782.1 134698 148.847
79957.9 134991 149.286
79867.8 135543 150.133
79782.1 136081 150.991
79696.3 136563 151.848
80039.3 137005 152.706
79696.3 137637 153.992
79782 138083 155.279
79867.8 138675 158.709
80039.3 139070 159.138
79953.6 139553 159.996
79782.1 140105 161.711
79610.5 140575 163.426
79867.8 141090 165.142
79680.4 141933 167.715
80039.3 142014 167.715
79696.3 142518 169.001
79655.3 143454 187.769
79817.1 143563 181.437
79602.1 144069 181.63
79778.6 144764 182.294
79819.4 145364 182.723
79610.5 145645 182.723
79719.9 146136 190.013
79848.2 146565 183.581
79860.8 147165 184.01
79867.8 147788 184.438
79899.4 148366 184.867
79723.9 148908 185.151
79953.6 149276 185.725
79942.1 149738 186.154
79867.8 150175 186.583
79782 150837 187.44
79698.6 151196 188.727
80441 47995.1 141.918
80324.2 48451 141.985
80530.9 48708.3 141.557
80382.4 49529.3 138.555
80296.6 49922.3 137.268
80234.7 50509.3 136.411
80280 50835.9 136.155
80559.5 51544.1 135.781
80485 51898.3 135.595
80444.8 52286.9 135.495
80443 52714 135.49
80502.9 53168 135.553
80532.2 53660.9 135.713
80153 54139.3 135.837
80153.9 54997.8 135.84
80102.6 55375.5 135.711
80538.2 55810.9 135.728
80402.8 56533.1 135.39
80381.1 56940.2 135.335
80368.4 57356.5 135.304
80221.2 58066.8 134.936
80133 58407.5 134.715
80592 58866.4 134.791
80540.7 59244 134.662
80496.5 60057.4 134.552
80484.9 60474.6 134.523
80441.3 60859.8 134.414
80243.5 61519.7 133.919
80151.9 61856.9 133.69
80557.4 63120.1 133.632
80570.9 63562.3 133.666
80574.1 63994.4 133.674
80534.6 64383.7 133.575
80400.1 65106.9 133.239
80373.7 65509.3 133.173
80379.9 65944.4 133.188
80417.9 66411.1 133.283
80468.2 66874 133.409
80499.8 67350.6 133.488
80353.6 67747.8 133.409
80455.4 68592.8 133.377
80468.2 68970.7 133.409
80224.5 69463.1 133.409
80372 69795.7 167.474
80097.1 70378.4 133.553
80098.6 70808.9 133.557
80403 71542.1 133.246
80377.5 72121.8 132.551
80501.6 72498.2 132.421
80458.3 72883.8 132.312
80096.8 73236.7 132.123
80553.9 74073.8 132.551
80125.1 74491.2 132.551
80196.9 74766.5 132.731
80402.1 75400.6 133.244
80522.7 75949.9 133.545
80468.2 76683.8 133.409
80394.8 77108.5 169.675
80296.6 77530.9 132.98
80179.5 78179.7 131.615
80142.8 78571.7 130.452
80553.9 78790 130.407
80210.8 79639.3 129.55
80131.6 79847 129.352
80448.9 80593 129.073
80416.5 80989.5 128.992
80210.9 81234 170.287
80434.3 81864.9 129.036
80257.2 82545.4 128.593
80125.1 83014.2 128.263
80495.5 83641.4 128.117
80456.9 84031.6 128.021
80417.5 84421.1 127.922
80329.7 85191 127.703
80277.1 85567.2 127.571
80118.2 85837 172.2
80134.2 86710.6 127.214
80578.1 87154.6 127.252
80540.1 87545.4 127.157
80502.6 87936.8 127.063
80428.4 88720.1 126.877
80388.3 89108.8 126.777
80367.8 89517.2 126.726
80358.3 89936.5 126.702
80347.3 90354.3 126.675
80173.3 91161.3 126.548
80294.9 91590.1 126.548
80425.9 92019 126.548
80272.4 92423.5 126.487
80322.3 92902.2 126.612
80468.2 93559.4 126.977
80557 93994.6 127.199
80581.4 94447.9 127.26
80529.1 94824.4 127.129
80379.6 95532.5 126.755
80357.3 95939 126.7
80363.5 96374 126.715
80380.8 96820.1 126.758
80424.3 97721.2 126.867
80466.3 98192 126.972
80241.2 98622.8 126.977
80564.2 99147.6 127.217
80118.3 99559.3 127.174
80163.7 100034 127.288
80256.4 100510 127.406
80266.3 100994 127.544
80341.1 101497 127.731
80400.8 101986 127.88
80440.5 102454 127.98
80478.5 102921 128.075
80524.4 103396 128.189
80410.6 103854 128.263
80197.6 104784 128.444
80256.3 105272 128.591
80210.1 105741 128.692
80370.4 106244 128.876
80442.5 106745 129.057
80530.2 107261 129.276
80215.1 107804 129.56
80382.4 108283 129.979
80468.1 108599 176.291
80546.1 109000 130.407
80469.7 109429 130.407
80515.6 109858 130.407
80593.2 110755 130.506
80126 111145 130.41
80228 111676 130.665
80425.8 112303 131.159
80445.4 112751 177.306
80210.9 113085 131.694
80280.5 113444 131.868
80313.2 113905 131.95
80445.5 114832 132.123
80458.4 115337 132.313
80477.8 115785 179.531
80183.1 116348 132.696
80123.2 116717 179.717
80339.1 116933 133.086
80494.2 117517 133.474
80210.9 118361 181.008
80210.9 118449 133.838
80382.4 119066 134.267
80591.2 119758 134.789
80125.2 119961 134.696
80430 120883 135.458
80262.2 121093 183.152
80210.8 121867 135.982
80382.4 122382 136.411
80468.4 122637 136.626
80145.7 123172 136.891
80296.6 123578 137.268
80296.6 124047 188.727
80159.5 124472 137.998
80382.4 124934 138.555
80468.2 125890 139.841
80550.6 126150 140.048
80145.6 126602 140.107
80313.1 127198 140.526
80504.2 127525 189.584
80125.1 127953 141.128
80361.2 128640 189.155
80210.9 129200 142.414
80382.4 129572 142.843
80125.1 130095 143.272
80461.6 130778 144.113
80210.9 131267 144.558
80317.4 131491 144.825
80553.9 131969 145.416
80468.2 132577 146.274
80553.9 133281 147.56
80170.6 133488 147.674
80451.8 134198 148.377
80210.9 134628 148.847
80545.6 135150 149.683
80468.2 135727 150.562
80210.9 136036 150.991
80553.9 136499 151.848
80210.9 137212 153.135
80553.9 137573 153.992
80210.9 138073 155.279
80497.5 138532 157.068
80468.2 139040 159.138
80382.4 139564 159.996
80468.2 140025 161.282
80296.6 140538 162.998
80553.9 141051 164.713
80414.6 141880 167.581
80210.9 142287 168.143
80553.9 142705 169.001
80154.8 143134 181.437
80125.1 143766 181.866
80296.6 144037 182.294
80114.9 144935 182.723
80387.8 145107 183.152
80382.4 145825 183.581
80165.4 146136 183.581
80457.4 146908 184.438
80170.5 147336 184.438
80217.3 147937 184.867
80188.2 148537 185.296
80382.4 148781 185.725
80295.8 149309 186.154
80296.6 149685 186.583
80206.9 150081 187.011
80125.1 150641 188.298
80897 47436 141.985
80757.9 47883.2 141.638
81025.1 48150.3 141.234
81065.7 49048.5 139.191
80982.7 49241.4 138.984
80639.7 49786.4 138.126
80725.4 50300.8 137.268
80717.3 50938.2 136.411
80681.8 51237.5 136.087
80964.6 51949.1 135.722
80958.8 52310.3 135.553
80861.4 52703.7 135.464
80866 53137 135.476
80974.5 53682.6 156.136
80969.7 54098.4 135.735
81041.8 54599.3 135.915
80600.4 55444.3 135.884
81059.5 55903.4 135.959
81007.6 56280.3 135.83
80701 56598.5 135.553
80879.5 57456.2 135.553
80843.6 57831.6 135.42
80655 58500.6 134.948
80686.2 58960.7 163.971
81062.4 59336.8 134.895
81023.2 59726.6 134.797
80849.9 60114.9 134.696
80973.8 60963.5 134.673
80879.7 61298.3 134.438
80693.1 61969.4 133.971
80633.2 62338.2 133.822
81068.5 62743.3 165.999
80715.5 63278.2 166.189
80862.1 64060 133.838
80994.4 64488.8 133.838
80996.4 64845.5 133.658
80759.2 65174.9 133.409
