ply
format ascii 1.0
element vertex 2086
property float x
property float y
property float z
element face 0
property list uchar int vertex_indices
end_header
42372.7 118847 182.897
42495.7 118777 182.723
28152.3 118515 182.723
27931.4 118777 182.723
46827.6 54690.6 142.576
56822.6 -434.277 150.562
126207 119206 182.723
96685.7 119206 182.723
65425 43047.9 133.838
40946.7 -434.277 150.562
80812.1 119206 182.723
42412.7 119315 182.997
42615.4 119206 182.723
57912.3 12815.6 153.135
27601.9 119206 182.723
150479 119635 182.723
126035 119635 182.723
96881.5 119753 183.019
96925.5 119635 182.723
44352.3 24770.8 155.684
80564.6 119635 182.723
106283 29157.1 145.416
100802 -5.37502 150.562
56709.8 -5.37502 150.562
103030 55054.8 142.414
27277.1 119635 182.723
150530 120064 182.723
44010.5 24608.7 155.279
97096.9 120064 182.723
113033 20320.5 144.558
105854 29192.7 145.416
80316.2 120064 182.723
42428.8 120189 183.037
42692.1 120064 182.723
27033.4 120064 182.723
42303.4 -120.476 150.562
150579 120492 182.723
64991.6 44505.9 132.123
41874.6 -235.775 150.562
119313 25037.6 155.279
42433.2 120622 183.048
42663.5 120492 182.723
41445.7 -295.975 150.562
98034 25037.6 155.279
26815 120492 182.723
150912 121039 183.017
150636 120921 182.723
125983 120921 182.723
43859.8 -2308.4 137.3
97291.9 120921 182.723
47620.6 54838.7 142.414
47191.8 54702.7 142.414
119919 217.125 150.562
79812.6 120921 182.723
42453.8 121072 183.099
65099.1 45088.9 132.508
26654.5 120921 182.723
61342.9 24808.5 155.279
150682 121350 182.723
126085 121350 182.723
92989.7 102171 134.696
54224.5 78557.3 136.411
79639.2 121379 182.795
65050.2 44934.7 132.123
102882 55483.7 142.414
42763.9 121350 182.723
42732.2 121101 182.723
101191 563.104 150.911
26538.8 121350 182.723
100866 423.424 150.562
150710 121779 182.723
126157 121779 182.723
97832 121779 182.723
50307.1 55597.1 142.698
79366.3 121779 182.723
50193.6 55269 142.414
42776.9 121779 182.723
55494.9 13186.1 153.523
26460.6 121779 182.723
150838 122252 182.833
56497 423.424 150.562
43199.3 461.744 150.658
126304 122208 182.723
98002.5 122208 182.723
105425 29198.5 145.416
49764.7 55213.8 142.414
42442.4 122347 183.071
42689.4 122208 182.723
42732.2 200.424 150.562
49335.9 55219.5 142.414
26411.9 122208 182.723
150828 122670 182.806
47926.6 -4673.82 134.603
119491 551.224 150.562
126507 122637 182.723
48478.3 55114.7 142.414
98134.4 122637 182.723
85614 42472.6 146.274
43741.1 -1892.23 137.268
50710.8 56000.9 142.635
79088.9 122637 182.723
119004 852.222 150.562
42555.5 122637 182.723
26378.6 122637 182.723
44037.3 25037.6 155.279
150751 123065 182.723
63750.8 56605.1 134.498
126732 123065 182.723
98240.7 123065 182.723
78948.1 123065 182.723
42385.4 123147 182.928
42467.3 123065 182.723
26316.7 123065 182.723
150842 123542 182.842
105054 29297.6 145.56
102509 56003 142.414
127126 123494 182.723
98360.6 123494 182.723
78752.9 123395 182.723
73219.2 45490.3 132.44
60742.5 18349.9 107.68
42351.7 123543 182.844
101157 852.222 150.562
26232.9 123494 182.723
119381 25466.4 155.279
150716 123923 182.723
51161 56451.1 142.689
127413 123923 182.723
98648.2 123923 182.723
95170 -8459.78 138.002
72955.5 45363.5 132.123
65134 45363.5 132.123
78314.2 123923 182.723
72773 45792.4 132.123
42315.8 123923 182.723
26196 123923 182.723
150943 124500 183.095
150650 124352 182.723
127584 124352 182.723
63331.3 56614.4 134.521
51425.2 56341.3 142.414
100623 124264 182.723
60988.4 25540.8 155.465
99765 124268 182.723
99336.2 124293 182.723
98907.3 124098 182.723
77955.5 124412 182.874
96771.6 20320.5 144.558
65225.3 45792.4 132.123
102081 56349.6 142.414
26252.8 124352 182.723
150539 124781 182.723
56208.8 852.222 150.562
101697 56815.5 142.528
127752 124781 182.723
73146.1 84439.6 125.824
101909 124663 182.723
101480 124497 182.723
101051 124415 182.723
54696.8 -1463.44 137.268
77466.4 124559 182.723
77037.6 124780 182.723
44014.7 25466.4 155.279
45305.1 728.023 150.562
119543 25895.2 155.279
42319.4 124797 182.763
62507 29068.4 121.402
98221.3 25647.4 155.279
43496 -1385.76 137.463
150407 125209 182.723
127846 125209 182.723
44876.3 558.323 150.562
102338 124948 182.723
76608.8 124915 182.723
76180 124947 182.723
75751.2 125030 182.723
44447.5 744.423 150.562
42351.4 125258 182.843
43623.8 -1463.44 137.268
26437.1 124941 182.723
26536.1 125209 182.723
51575.9 56865.9 142.654
64745.1 52024.7 135.911
150256 125638 182.723
128049 125638 182.723
102913 125638 182.723
102767 125354 182.723
75322.3 125375 182.723
75218.9 125638 182.723
42371.7 125707 182.894
98333.6 25895.2 155.279
26691.4 125638 182.723
150049 126067 182.723
51714.3 56770.1 142.414
128234 126067 182.723
102979 126067 182.723
75135.5 126067 182.723
54706.6 -1034.53 137.268
42410.1 126067 182.723
72581.5 46221.2 132.123
26799.4 126067 182.723
43971.7 852.222 150.562
101223 56907.6 142.414
149778 126496 182.723
128388 126496 182.723
103083 126496 182.723
75099.6 126496 182.723
42317.1 126510 182.758
65326.1 46221.2 132.123
26929.5 126560 182.882
43589.8 680.824 150.562
149508 126871 182.723
101370 57345.8 142.781
100890 57295 142.654
128496 126726 182.723
60923.1 25904.3 155.302
100794 57043.4 142.414
43473.9 -978.975 137.407
103196 126787 182.723
75101.2 126925 182.723
100452 57285.1 142.63
42233.4 126925 182.723
100365 57073.5 142.414
53795.7 78608.1 136.411
99993 57255.4 142.555
129066 127495 183.076
56668.4 109128 128.584
103319 127354 182.723
75098.5 127354 182.723
43972 25895.2 155.279
26865.9 127063 182.723
26934 127354 182.723
118553 1281.02 150.562
148779 127782 182.723
129353 127714 182.723
85472.9 42876.4 146.274
128925 127410 182.723
103403 127782 182.723
75101.3 127782 182.723
42193.6 127782 182.723
27448.5 127936 183.108
27123.5 127782 182.723
73199.1 80204.5 127.029
56025.6 1085.72 150.562
148477 128211 182.723
129782 127999 182.723
130116 128211 182.723
103401 128211 182.723
75120.4 128211 182.723
72421.7 46650 132.123
42182.4 128211 182.723
119662 26158.6 155.279
27376.9 128211 182.723
98417.4 26324 155.279
63459.9 52026 135.914
148205 128640 182.723
130640 128473 182.723
130970 128640 182.723
104568 29016.9 145.416
103329 128640 182.723
75163.9 128640 182.723
62902.6 56614.5 134.521
42142.3 128640 182.723
99675.5 57795.6 142.834
46263.1 1281.02 150.562
147967 129069 182.723
131990 129132 182.882
45733.9 930.122 150.562
57486.1 97936.7 125.262
131498 128865 182.723
76831.7 109566 128.606
81377.2 52361.7 135.682
103219 129069 182.723
75197.3 129069 182.723
41962.1 129156 182.942
42087.1 129069 182.723
60713.3 26324 155.279
28336.2 129069 182.723
63890.9 43023 146.64
147933 129638 183.075
118277 1709.82 150.562
132784 129304 182.723
133009 129498 182.723
132355 129095 182.723
43937.9 26324 155.279
101634 1709.82 150.562
55765.4 1878.54 150.984
75252.9 129498 182.723
41919.5 129543 182.836
119869 26752.8 155.279
41613.1 129665 183.142
28581.1 129283 182.723
28805.3 129498 182.723
147364 129732 182.723
51965.5 57627.7 142.414
57122.7 98004.7 125.431
55743.9 1709.82 150.562
80958.8 52310.3 135.553
144908 129926 182.723
144458 130022 182.962
144362 129797 182.723
144026 130019 182.955
143933 129794 182.723
143531 129953 182.789
98655.7 58062.3 142.428
56751.4 98062.2 125.575
133213 129689 182.723
133523 129926 182.723
103228 129958 182.803
62500.4 56641.1 134.588
65514.9 46650 132.123
104139 28848.6 145.416
72265.1 47078.8 132.123
41920.9 129973 182.839
42104.6 129926 182.723
52082.3 58056.6 142.414
98501.3 26752.8 155.279
47086 1709.82 150.562
98221.2 58281.7 142.414
98320.6 58584.7 142.663
65741.3 47078.8 132.123
146506 130095 182.723
146226 130504 183.095
146077 130123 182.723
145648 130085 182.723
145220 130012 182.723
143076 130168 182.723
46591.6 1482.12 150.562
59198.8 20048.2 144.558
134070 130249 182.723
117986 2138.73 150.562
60511 26778.5 155.343
52194.6 58485.4 142.414
72300.3 47573.1 132.286
75422.5 130355 182.723
41957.3 130438 182.93
42283.9 130355 182.723
29234.2 130355 182.723
142647 130395 182.723
142352 130918 183.058
142218 130587 182.723
40483.5 16614 138.508
141789 130696 182.723
141405 130829 182.836
55451 2138.73 150.562
48306.8 1897.02 150.562
140932 130715 182.723
97792.4 58692.9 142.414
140503 130729 182.723
140157 130784 182.723
43979.5 26752.8 155.279
138787 130762 182.723
119945 27181.6 155.279
97860.6 58982.3 142.585
138359 130758 182.723
137988 130842 182.868
48708.4 2138.73 150.562
137501 130667 182.723
137072 130556 182.723
136643 130521 182.723
136214 130557 182.723
135786 130617 182.723
135357 130594 182.723
134928 130519 182.723
47878 1866.12 150.562
103196 130379 182.723
103100 130784 182.723
75511.9 130784 182.723
42352.1 130833 182.845
42540.4 130784 182.723
47449.2 1807.62 150.562
42017.6 130927 183.081
29346.2 130784 182.723
65995.2 47507.6 132.123
98650.1 27032.7 155.279
139645 130810 182.723
71915.4 47936.5 132.123
102941 131213 182.723
75557.8 131213 182.723
42392.7 131302 182.947
117583 2567.52 150.562
29454.5 131229 182.762
75166.2 98466.7 125.514
97432.2 59343 142.414
102767 131526 182.723
101480 2335.53 150.562
75545.4 131642 182.723
42403.3 131742 182.973
45063.8 29341.8 145.67
63535.7 42876.4 146.274
29668.2 131642 182.723
102463 132071 182.723
75492.2 132071 182.723
42384.1 132151 182.925
42493.1 132071 182.723
41750.9 42876.4 146.274
59058.2 20320.5 144.558
55070.8 2567.52 150.562
75516.8 132499 182.723
66296 47936.5 132.123
42325.1 132499 182.723
60357.7 27181.6 155.279
102220 132928 182.723
75570.8 132928 182.723
43520.8 -605.736 137.268
42108.2 132928 182.723
60223.2 27348.5 155.696
29745.9 132928 182.723
102162 133357 182.723
89301.8 135553 156.565
75701.6 133357 182.723
41874.5 133226 182.723
41613.3 133357 182.723
54600 -176.937 137.268
41126.1 133466 182.996
49593.3 2268.02 150.562
49164.5 2233.22 150.562
52396.3 59343 142.414
70347.8 106513 126.333
65030.7 51900.6 135.553
75938.8 133786 182.723
117347 2745.72 150.562
41016.9 133495 182.723
40588.1 133549 182.723
40159.2 133626 182.723
97227.8 59771.8 142.414
52476.1 59910.3 142.76
101909 133898 182.723
101628 134215 182.723
76098.5 134215 182.723
39730.4 133820 182.723
69127.7 97145 124.355
68674.6 97120.8 124.294
101207 2996.32 150.562
30020.5 134215 182.723
44076.9 27181.6 155.279
101280 134643 182.723
54739.1 2830.12 150.562
76180 134559 182.723
52494.7 59771.8 142.414
39301.6 134344 182.723
39024.6 134643 182.723
96987.2 60200.7 142.414
101051 135057 182.723
71693.1 48365.2 132.123
66060.8 31126.8 115.828
76188.7 135072 182.723
38872.8 134965 182.723
52594.6 60200.7 142.414
54433.7 3119.72 150.87
62903.1 37044.5 127.406
97070.3 60765 142.753
30494 135072 182.723
119974 27610.5 155.279
66660.2 48318.3 132.123
76099.6 135501 182.723
39037.9 135666 183.136
38578.8 135501 182.723
53366.9 78611.6 136.411
30725.2 135484 182.723
66326.7 48460.5 132.361
100623 135582 182.723
64690.1 52398.5 135.774
98878.3 27610.5 155.279
53107.1 3079.68 150.77
52696.6 3097.92 150.816
50992.5 3109.16 150.844
38416 135930 182.723
60144.7 27698.8 155.5
30871.6 135930 182.723
100194 135961 182.723
99944.7 136359 182.723
75751.2 136079 182.723
75514.5 136359 182.723
106364 109944 153.135
60204.4 27610.5 155.279
38245.8 136359 182.723
30865.6 136499 183.074
30951.3 136359 182.723
99786.4 136788 182.723
76265.7 109055 128.263
75019.5 136788 182.723
50450.9 2851.12 150.562
52766.5 60804.3 142.414
116918 3026.42 150.562
52849.7 61058.3 142.414
44170.7 27610.5 155.279
99728.7 137216 182.723
116489 3184.22 150.562
74559.8 137216 182.723
74569.8 137321 182.986
38015.2 136853 182.723
119929 28039.3 155.279
64301.4 52438.7 135.874
116060 3390.52 150.562
98056 115947 144.558
31253.9 137216 182.723
99773.6 137645 182.723
74683.7 98413 125.38
68234.2 97109.2 124.265
52397.3 16949.6 138.275
67095.9 48800.9 132.14
62286.3 31029 115.828
53017.3 61487.1 142.414
37662.1 137721 182.913
63842.4 52408.5 135.799
53881.5 3107.93 150.562
99873.2 138074 182.723
74035.9 137756 182.723
99000 28039.3 155.279
73741.7 138209 183.06
37739.1 138227 183.105
66742 48875.8 132.327
37231.8 138148 182.909
61857.5 30733 115.828
31689.8 138181 182.99
71377.2 48852.3 132.123
71452.2 49297.9 132.31
100343 138652 183.095
100000 138503 182.723
73607.1 138236 182.723
73402.3 138503 182.723
49628.2 115947 144.558
37312.8 138658 183.111
36728.7 138082 182.723
36810.8 138585 182.928
53452.7 3170.72 150.562
36299.9 138382 182.723
70949 49223.5 132.124
32064.7 138556 182.856
95219.5 61837.8 142.414
54982.5 13102.6 153.314
31754.4 138674 183.152
100268 138932 182.723
63400.1 52395 135.765
73178.2 138730 182.723
59982.1 28039.3 155.279
53023.8 3139.32 150.562
36887.9 139091 183.121
36419.3 139051 183.022
52595 3148.92 150.562
35959.3 139020 182.944
35479.1 138969 182.815
77260.7 97559.3 126.462
74807.8 132383 144.987
32450.7 138942 182.749
65716.8 31362.7 115.828
65300.5 31568.1 115.859
32126.7 139047 183.011
52166.2 3235.42 150.562
100623 139354 182.723
72749.4 139129 182.723
72469.8 139360 182.723
55253.6 29444.6 145.416
72435.8 139667 183.416
35573.6 139492 183.052
119817 28468.1 155.279
35081.6 139429 182.894
94851.7 62405.8 142.567
32569.2 139489 183.045
67517.9 49056.7 132.123
101056 139794 182.734
51308.6 3363.42 150.562
53260.2 62409.6 142.576
72149.8 139789 182.723
71963.9 139862 182.904
50879.7 3170.52 150.562
76324.3 109488 128.41
34221.2 139855 182.887
99087.7 28468.1 155.279
115631 3796.62 150.562
33727 139681 182.723
33423.8 139915 183.037
33298.1 139559 182.723
32869.3 139363 182.723
54521.2 13070 153.233
101384 140218 182.723
67174.9 49308.8 132.337
59791.1 28468.1 155.279
67794.1 97097.9 124.237
101051 3451.92 150.562
101702 140647 182.723
54553.2 251.865 137.268
71923.7 140380 182.728
71812.2 140702 182.742
44353.4 28468.1 155.279
101962 141076 182.723
94361.8 62541.9 142.414
71496.8 141167 182.983
71749.9 141079 182.679
43037.2 299.625 137.388
102145 141505 182.723
71476.5 141572 182.882
119756 28896.9 155.279
71233.9 141699 183.201
94447.6 62859.4 142.629
102269 141933 182.723
115414 4282.83 150.562
85658.9 141978 182.835
100623 4035.22 150.562
62800.9 15619.1 106.394
99219.2 28896.9 155.279
84327.5 141766 182.723
83898.7 141718 182.723
83469.9 141697 182.723
83041.1 141734 182.723
82612.2 141796 182.723
82183.4 141892 182.723
57502.1 98384.1 125.308
53458 62773.6 142.414
71534.2 141932 182.722
71157.5 142066 182.982
93933 62979.2 142.414
71060.5 49763.9 132.403
45066.2 29773 145.676
52166.1 15162.5 137.697
86042.8 142150 182.723
69863.6 106457 126.195
81754.6 142092 182.723
105082 63369 153.135
70519.6 49340.2 132.123
70602.3 49734.4 132.329
71130.1 142454 182.937
70860.7 142483 183.165
102930 142955 183.132
70159.2 49720.2 132.294
72026 80317.8 127.312
94007.5 63276.8 142.6
44190.1 109907 153.135
86900.4 142775 182.723
86471.6 142472 182.723
81325.8 142514 182.723
81146.9 142791 182.723
71109 142868 182.921
71351 142791 182.723
70749.8 142973 183.138
69716.6 49706.4 132.259
102382 143220 182.723
75899.5 80760.7 127.348
99743.2 4711.62 150.562
63008.2 52431.9 135.857
89902.2 143078 182.723
89473.3 143078 182.723
89044.5 143125 182.723
88615.7 143132 182.723
88186.9 143090 182.723
87758.1 143016 182.723
87329.2 142931 182.723
80976.2 143220 182.723
71104.2 143290 182.898
71268.1 143220 182.723
70766.5 143380 183.079
102906 143788 183.071
102427 143649 182.723
92604.7 143778 183.047
115202 4941.82 150.562
93405.5 63631.2 142.414
91617.4 143553 182.723
91188.6 143479 182.723
90759.8 143365 182.723
59722.2 28896.9 155.279
80756.5 143649 182.723
71089.5 143704 182.862
44380.9 28896.9 155.279
99427.2 5140.42 150.562
102876 144187 182.996
119839 29325.7 155.279
69662 49431.1 132.123
93298.1 144077 182.723
92903.9 143903 182.723
92475.1 143743 182.723
80593.6 144077 182.723
71070.4 144114 182.814
40961.2 16890 138.126
53702.5 63709.6 142.61
102861 144600 182.959
102514 144506 182.723
114893 5569.23 150.562
93900.2 144506 182.723
57155.5 98466.3 125.513
99434.6 29325.7 155.279
80339 144506 182.723
69268.6 49687.2 132.211
71961 37473.3 127.406
59705.3 29403.5 155.473
102851 145020 182.934
102537 144935 182.723
94190.3 144734 182.723
94435.5 144935 182.723
80114.9 144935 182.723
71034.1 144666 182.723
71001.1 144935 182.723
70752.6 145082 183.091
102845 145443 182.92
102550 145364 182.723
54109.4 13087.1 153.276
94934.3 145364 182.723
55326.7 30170.7 145.599
79819.4 145364 182.723
99216.3 5569.23 150.562
44306.9 29325.7 155.279
102849 145875 182.928
102523 145793 182.723
114819 5998.02 150.562
119956 29754.5 155.279
79610.5 145645 182.723
81834.4 52819 135.753
99082.1 5998.02 150.562
114952 6426.82 150.562
68830.9 49678.3 132.189
102874 146329 182.992
53921.7 64060 142.414
75417 80707.1 127.213
95905.6 146165 182.723
93096.9 64488.8 142.414
40498.9 17058.1 138.546
79181.7 146195 182.723
75191.6 98920.8 125.578
115258 6911.2 150.701
54068.5 64488.8 142.414
93151.4 64917.7 142.414
71092.3 146222 182.723
45061.1 30196.7 145.664
100023 24866 144.13
68409.8 49686 132.208
102353 146666 182.762
99833.4 29754.5 155.279
96334.4 146442 182.723
96598.8 146650 182.723
62969.8 37473.3 127.406
98907.4 6450.42 150.562
71185.6 146650 182.723
70737.7 146783 183.054
102936 147249 183.147
110671 43305.2 146.274
102141 147079 182.723
59735.3 29862.2 155.548
97058.5 147079 182.723
68023.6 49728.7 132.315
54220.2 64917.7 142.414
71088.5 147134 182.859
98639.9 6855.72 150.562
70759.9 147234 183.11
102424 147594 182.938
115558 7284.52 150.562
67946.7 49322.8 132.123
98478.6 7099.53 150.562
67639.5 49773.4 132.427
78324.1 147112 182.723
77906.8 147520 182.752
67250.1 49812.8 132.525
70247.7 50237.5 132.515
71108.4 147582 182.909
71388.8 147508 182.723
59766.7 29754.5 155.279
101909 147653 182.723
101939 147967 182.798
93270.2 65346.5 142.414
98927.7 147957 182.774
62109.9 56679.4 134.683
69802.6 50221.2 132.474
98543.6 148002 182.886
75903.4 109429 128.263
44179.8 29754.5 155.279
98049.7 147654 182.723
97620.9 147509 182.723
43761.3 109931 153.135
77533.5 148004 182.891
74705 98863 125.433
71475.2 147949 182.754
69363.6 50211 132.449
93329.2 65775.3 142.414
71131.2 148034 182.966
102003 148460 182.959
45248.3 30097.6 145.416
101541 148427 182.876
101105 148420 182.858
101051 148142 182.723
100677 148420 182.86
120006 30183.4 155.279
100269 148441 182.911
100194 148054 182.723
99869.2 148470 182.984
81325.8 52639.6 135.553
85367.2 43305.2 146.274
99336.2 147957 182.723
68930.5 50206.7 132.438
77037.6 148088 182.723
77150.2 148478 183.005
63844.5 43405.4 146.524
62372 15674.4 106.394
76577.2 148366 182.723
71509.2 148412 182.839
71752 148366 182.723
71151.5 148483 183.017
43390.9 110002 153.281
51298.5 7284.52 150.562
54481.7 65430.9 142.414
54818.7 65775.3 142.414
53709.6 13116.2 153.348
76249.6 148864 182.897
93656.4 66356.2 142.795
75751.2 148751 182.723
50879.7 7159.82 150.562
71925.2 148828 182.807
93296.4 66204.1 142.414
64601.9 52732.9 135.553
71543.2 148875 182.924
50450.9 7225.02 150.562
47795.4 102568 134.696
75322.3 148876 182.723
75421.5 149322 182.971
74950.8 149281 182.866
51979.9 17318.8 138.126
74941.8 80660.7 127.097
74464.7 149074 182.723
74065.9 149253 182.798
49609.5 7300.76 150.602
55355.2 30628 145.67
73607.1 149127 182.723
73206 149251 182.793
42560.6 667.065 137.268
49164.5 7224.12 150.562
72749.4 149054 182.723
72376.9 149280 182.864
68846.4 29497.3 121.402
71987 149318 182.961
71595.4 149356 183.054
55275.1 66204.1 142.414
74176.9 149793 183.076
67354.1 97086.8 124.209
73310.6 149785 183.054
59829 30183.4 155.279
55028.9 30526.4 145.416
72060.9 149821 183.146
93133.9 66632.9 142.414
137400 108314 182.294
71929.7 58351.7 132.432
136901 108304 182.294
44103.4 30183.4 155.279
136472 108242 182.294
136043 108129 182.294
135614 108077 182.294
135185 108107 182.294
134757 108185 182.294
71497.4 58348.2 132.423
71070.6 58350.2 132.428
139619 108888 182.658
115739 7713.33 150.562
139045 108697 182.294
138616 108562 182.294
138187 108440 182.294
63770.9 52765.9 135.62
134328 108326 182.294
133899 108550 182.294
133470 108720 182.294
54796.3 1109.46 137.268
92749.3 67061.7 142.414
70648.9 58357.4 132.446
139902 108984 182.294
139474 108843 182.294
133041 108965 182.294
55234.6 67061.7 142.414
141702 109601 182.294
98244.9 7713.33 150.562
141189 109467 182.294
140760 109326 182.294
132612 109216 182.294
132184 109417 182.294
119986 30612.2 155.279
131759 109605 182.304
69800 58366.1 132.468
57840.3 109443 128.298
40831.9 17391.1 138.307
100365 30292.3 155.279
39987.7 109435 182.294
55103.7 67490.6 142.414
39558.9 109388 182.294
57918.2 98800.2 125.276
39130.1 109388 182.294
39274.5 109745 182.655
38701.3 109427 182.294
74464.7 80603.7 126.977
38272.5 109546 182.294
92383.9 68085.5 142.83
56907.7 7713.33 150.562
142615 110029 182.294
45074.7 30639.1 145.698
142046 109719 182.294
39557 20320.5 144.558
130897 109769 182.294
56501.6 7760.57 150.68
91955.4 67919.4 142.414
130348 110029 182.294
56025.6 7560.42 150.562
41907.1 110029 182.294
59920.5 30612.2 155.279
41274.2 109785 182.294
40845.4 109652 182.294
37843.7 109707 182.294
37414.8 109924 182.294
55341.6 31043.3 145.636
66903.9 97065.4 124.156
143122 110458 182.294
142904 110252 182.294
130040 110218 182.294
69367.7 58362.6 132.459
68940.4 58364.2 132.463
42573 110470 182.325
68509.8 58362.3 132.458
63354.3 52778.2 135.65
42131.8 110157 182.294
55014.6 67919.4 142.414
36986 110221 182.294
62995.6 52848.3 135.826
143478 110887 182.294
143333 110694 182.294
129611 110481 182.294
55031.8 68469.4 142.717
44289.9 110901 182.329
73607.1 80256.6 126.977
55016.8 68348.2 142.414
55518.3 7713.33 150.562
43882.5 110922 182.383
44097.9 30612.2 155.279
43485 110954 182.461
42989.5 110628 182.294
43119.4 111017 182.619
82271.8 53256.4 135.774
119880 31041 155.279
36203.6 110962 182.482
68087.1 58368.4 132.474
67655.9 58366.1 132.468
35687.4 110887 182.294
67226.5 58365.5 132.466
66800.8 58368.6 132.474
129182 110949 182.294
51352.6 7757.37 150.672
91852.8 68840.8 142.574
45232.9 111316 182.294
51575.4 7713.33 150.562
44704.7 110991 182.294
44793.2 111404 182.516
55066.6 68777 142.414
66369.7 58366.4 132.468
89050.8 135758 156.565
35342.7 111388 182.474
101401 31041 155.279
143972 111745 182.294
128753 111440 182.294
91562.6 69205.8 142.414
65947.6 58373 132.485
128280 111745 182.294
50964.4 7798.05 150.774
45701.1 111745 182.294
50524.3 7786.77 150.745
45248.6 111860 182.582
34841.9 111450 182.294
34413.1 111589 182.294
55087.9 69205.8 142.414
50022.1 7338.72 150.562
91489.2 69634.7 142.414
60033.8 31041 155.279
127997 112275 182.549
127728 112173 182.294
65514.9 58369.2 132.475
46034.9 112173 182.294
55050.6 69634.7 142.414
45673.2 112284 182.571
33984.3 111781 182.294
33555.5 111995 182.294
50089.9 7781.13 150.731
65097.8 58380.8 132.505
145000 112602 182.294
144619 112405 182.294
91583.8 70063.5 142.414
73665.9 58801.5 132.484
127448 112602 182.294
88976.2 112602 182.294
49679.8 7799.85 150.778
88444.2 112560 182.294
88088 112602 182.294
46067.3 112678 182.485
46215 112602 182.294
55069.3 70222.2 142.811
33126.6 112296 182.294
44137.1 31041 155.279
145596 113031 182.294
49249.1 7797.97 150.773
55034.6 70063.5 142.414
127626 113191 182.693
127251 113031 182.294
90324.6 113031 182.294
99507.4 25037.2 144.558
89730.6 112807 182.294
89301.8 112673 182.294
49764.8 116174 144.558
87586.5 112692 182.294
87157.7 112791 182.294
86728.9 112923 182.294
86499.1 113031 182.294
46084.9 113125 182.529
48769.7 7747.33 150.647
32697.8 112758 182.294
32477.5 113031 182.294
145929 113460 182.294
73227.5 58791.9 132.46
127128 113460 182.294
91187.2 113460 182.294
119754 31469.8 155.279
90588.3 113162 182.294
41099.6 17318.8 138.126
85871.3 113340 182.294
52938.1 78723.5 136.411
46055.5 113524 182.455
46236.8 113460 182.294
115730 8240.8 150.809
91738 70492.3 142.414
32161.5 113460 182.294
146374 113889 182.294
55080.5 70492.3 142.414
127038 113850 182.294
91814.8 70946.9 142.479
72785.8 58779 132.428
91874.9 113889 182.294
72340.1 58762.2 132.386
91445.9 113633 182.294
85442.5 113563 182.294
85013.6 113764 182.294
101681 31469.8 155.279
46013.8 113911 182.351
115764 8142.12 150.562
45702.7 114029 182.645
31840.2 113855 182.294
71898.4 58749.3 132.354
78356.5 57059.8 134.562
146905 114459 182.648
98117.9 8142.12 150.562
146763 114221 182.294
55183.2 70921.1 142.414
126962 114318 182.294
92503.8 114318 182.294
92303.5 114181 182.294
84584.8 114041 182.294
84197.1 114318 182.294
109799 60176.4 153.135
71472.7 58752.4 132.361
45570 114318 182.294
31411.4 114284 182.294
91703.1 71349.9 142.414
71050 58758.6 132.377
70626 58763.3 132.389
147192 114531 182.294
126858 114746 182.294
57510 8142.12 150.562
92732.4 114503 182.294
77876.9 57009.1 134.435
70207.7 58773.9 132.415
69773.7 58768.7 132.402
45133.6 114558 182.294
44758.1 114800 182.428
45390.8 30826.4 145.416
30982.6 114574 182.294
41851.3 1257.7 137.639
148502 115175 182.294
69341.6 58765.4 132.394
148050 114970 182.294
147621 114776 182.294
91583.9 71778.7 142.414
93401 115175 182.294
93161.2 114893 182.294
83727.2 114763 182.294
55729.5 8274.92 150.894
113313 20832.9 144.767
83167.4 115175 182.294
55217 8191.28 150.685
44275.9 115000 182.294
43847.1 115142 182.294
43436.4 115193 182.34
68917.9 58770.5 132.407
43070 115256 182.496
30553.7 114833 182.294
72749.5 80280 126.977
29980.9 115175 182.294
54741.8 8144.8 150.569
148907 115380 182.294
53300 13135.3 153.396
126420 115604 182.294
93760.6 115604 182.294
93590 115388 182.294
82869.5 115422 182.294
62220.2 29497.3 121.402
82695.7 115604 182.294
55357.5 71778.7 142.414
54310.3 7816.12 150.562
54341.6 8173.4 150.64
29696.1 115419 182.294
29517.4 115604 182.294
149528 116033 182.294
149336 115757 182.294
126223 116033 182.294
68489.4 58770.8 132.407
94018.8 116020 182.294
80502.9 53168 135.553
82503.8 116096 182.452
57541.6 98852.4 125.407
53881.5 7741.22 150.562
53905 8165.64 150.621
29372.5 116138 182.557
29195.7 116033 182.294
149888 116584 182.601
149697 116462 182.294
55243.3 72207.6 142.414
41677.2 43305.2 146.274
126091 116462 182.294
94171.5 116462 182.294
53459.6 8149.04 150.579
42960.8 116462 182.294
28963.6 116462 182.294
91360.1 72282.7 142.414
149765 116813 182.294
126023 116890 182.294
72320.6 80373.8 126.977
94447.6 116805 182.294
82011.9 116600 182.294
81909.2 116890 182.294
113058 20749.4 144.558
28838.5 116730 182.294
28990.4 117042 182.674
51920.8 8142.12 150.562
149821 117319 182.294
126027 117319 182.294
95003.1 117319 182.294
55304.8 31435.2 145.544
81863.3 117319 182.294
42859.8 117319 182.294
28578.8 117319 182.294
149861 117748 182.294
126054 117748 182.294
95496 117748 182.294
44177.1 31469.8 155.279
51381.7 8215.28 150.745
51006.4 8268.88 150.879
42823.8 117748 182.294
28409.6 117668 182.294
54901 1538.36 137.268
91154 72636.4 142.414
149920 118177 182.294
126091 118177 182.294
95984.6 118177 182.294
95734.1 117948 182.294
81583.1 117884 182.294
54915.1 72640.9 142.426
42657.5 118274 182.536
110692 43734 146.274
28075.9 118177 182.294
149981 118606 182.294
126173 118606 182.294
96332.8 118606 182.294
96162.9 118382 182.294
81154.3 118212 182.294
41787 1622.32 137.478
42662.2 118707 182.548
57195.3 98934.9 125.613
49755.1 8303.96 150.966
49295.2 8272.88 150.889
101867 31898.6 155.279
150038 119035 182.294
126028 119035 182.294
48560.5 8142.12 150.562
90955.5 73065.2 142.414
96591.7 118970 182.294
80725.5 118731 182.294
80540.3 119035 182.294
75217.9 99375.9 125.644
43026.8 119035 182.294
68070.5 58780.8 132.432
60309.2 31898.6 155.279
27552 118744 182.294
27288.7 119035 182.294
115688 8570.92 150.562
150092 119463 182.294
125796 119463 182.294
96897.4 119463 182.294
80296.8 119463 182.294
41893.6 1538.36 137.268
43072.3 119463 182.294
42726.1 119629 182.708
44177.4 31898.6 155.279
26996.8 119463 182.294
54595.3 73065.2 142.414
150144 119892 182.294
98113.1 8634.32 150.72
67637.4 58776.5 132.421
125679 119892 182.294
97051.1 119923 182.371
119662 32042.9 155.279
74729.2 99316 125.494
67209.8 58777.7 132.425
52880 13144.2 153.418
43020.6 119923 182.372
80039.3 52991.4 135.553
66787 58783.7 132.44
51959.8 17798.6 138.253
66363.2 58788.7 132.452
150182 120321 182.294
101775 32327.5 155.279
125677 120321 182.294
97142.7 120443 182.6
97111.2 120321 182.294
79867.8 120072 182.294
80020.2 120473 182.675
79699.8 120321 182.294
42989.5 120276 182.294
54421.5 73494 142.414
65943.7 58798.1 132.475
85303.4 43734 146.274
26595 120321 182.294
150225 120750 182.294
91124.1 73922.8 142.414
125751 120721 182.294
65517.1 58800.3 132.481
97240.5 120750 182.294
79451.5 120750 182.294
57780.5 8610.68 150.661
45565.6 31384.1 145.416
26428.6 120750 182.294
111133 1928.15 144.675
125845 121179 182.294
97572 121301 182.601
97548.8 121179 182.294
44152.1 32327.5 155.279
65099.8 58811.8 132.51
79203.9 121179 182.294
42892.9 121179 182.294
26293.3 121179 182.294
150305 121607 182.294
125934 121607 182.294
97780.9 121607 182.294
79037.5 121607 182.294
52476.2 13169.1 153.481
54384.5 73922.8 142.414
69269.1 135758 156.565
26197.3 121607 182.294
150342 122036 182.294
126083 122036 182.294
54801 8632.88 150.717
54372.5 8633.12 150.717
53945.6 8635 150.722
91360.1 74305 142.414
53541 8659.2 150.783
78941.6 122036 182.294
54418.3 74351.7 142.414
42844.6 122036 182.294
26160.5 122036 182.294
150360 122465 182.294
126180 122303 182.294
53023.8 8199.52 150.562
98069.4 122465 182.294
78797.8 122465 182.294
119526 32756.3 155.279
42761.2 122465 182.294
26158.5 122465 182.294
150371 122894 182.294
126447 122894 182.294
98165.1 122894 182.294
78581.4 122849 182.294
91615.3 74780.5 142.414
53151.5 8698.6 150.881
42608.2 122941 182.413
55133.5 31812.9 145.416
26137.9 122894 182.294
150379 123323 182.294
126609 123118 182.294
52716.9 8692.8 150.867
98277.9 123323 182.294
78289.9 123323 182.294
73650 59214.4 132.444
42573.8 123323 182.294
26098 123323 182.294
150360 123752 182.294
127038 123402 182.294
101652 32661.2 155.279
98434.4 123752 182.294
64173.1 52867.9 135.553
47711.3 92962.4 134.267
78034.7 123752 182.294
73208.7 59201.9 132.413
41222.6 17781.8 138.212
26086.7 123752 182.294
150286 124180 182.294
127591 124305 182.606
127467 123924 182.294
52166.2 8227.52 150.562
100117 124275 182.532
99665 124252 182.473
91724.8 75209.3 142.414
45470.3 31892.3 145.615
98735.8 124032 182.294
51870.3 8703.88 150.894
51463.8 8726.16 150.95
42452.4 124180 182.294
26114.8 124180 182.294
72768.7 59190.8 132.385
74255.4 99271.1 125.381
150170 124609 182.294
127585 124180 182.294
127704 124609 182.294
64696.9 18862.6 107.68
101738 124478 182.294
101309 124338 182.294
100880 124307 182.294
100451 124323 182.294
100022 124327 182.294
48855 8690.2 150.86
99164.7 124266 182.294
77723.7 124244 182.294
77294.9 124451 182.294
72317.5 59168.4 132.329
73779.2 99223.7 125.263
45620.5 31812.9 145.416
26182.1 124609 182.294
91681.7 75638.1 142.414
150043 125038 182.294
127803 125038 182.294
54481.7 75256.6 142.414
102701 125038 182.294
42903.7 109659 153.135
54442.2 75638.1 142.414
76866.1 124680 182.294
76437.3 124819 182.294
76008.5 124897 182.294
91514.4 76066.9 142.414
54368.8 76066.9 142.414
91360.1 76310.6 142.414
107930 509.159 156.136
26285.2 125038 182.294
149881 125467 182.294
71882.8 59162.5 132.315
54284.5 76495.7 142.414
127928 125467 182.294
102893 125467 182.294
75579.7 125097 182.294
75187.1 125467 182.294
60411 18862.6 107.68
57953.5 99264.2 125.364
26396.2 125467 182.294
115524 8999.82 150.562
97926.7 8999.82 150.562
149640 125896 182.294
128050 125896 182.294
64244 43734 146.274
90918.8 76924.6 142.414
74964.2 125896 182.294
58204.9 9035.1 150.65
26487.2 125896 182.294
71460.2 59168.7 132.33
128226 126324 182.294
71037 59174.4 132.344
103032 126324 182.294
70610.9 59177 132.351
74882 126324 182.294
42417.4 126324 182.294
26554.4 126324 182.294
54239.1 76924.6 142.414
51742.1 8742.46 135.982
60557.7 32756.3 155.279
128475 126753 182.294
103105 126753 182.294
74838.3 126753 182.294
55041.9 2012.72 137.382
42341.5 126753 182.294
26629.1 126753 182.294
57880.1 9139.18 150.91
149056 127330 182.665
148686 127182 182.294
70180.9 59175.9 132.348
90705.7 77353.4 142.414
128790 127182 182.294
103189 127182 182.294
74817.9 127182 182.294
42232 127282 182.545
42290.9 127182 182.294
71834.7 80612.4 126.977
26740.6 127182 182.294
58937 20749.4 144.558
91626.8 93486.3 134.505
148379 127611 182.294
44142.5 32756.3 155.279
129355 127611 182.294
103212 127611 182.294
74829.4 127611 182.294
49212.1 14622.1 136.744
42270.6 127611 182.294
26887.8 127611 182.294
58159.8 99223.1 125.262
129611 127797 182.294
129993 128040 182.294
103183 128040 182.294
74864.5 128040 182.294
101558 33185.1 155.279
42258.5 128040 182.294
54218 77353.4 142.414
90726.5 77782.2 142.414
54214.8 77782.2 142.414
147816 128469 182.294
130468 128277 182.294
47191.9 -8021.78 133.838
91058.2 78337.8 142.731
103103 128469 182.294
74902.9 128469 182.294
42205.9 128543 182.48
60700.5 33185.1 155.279
27674.2 128591 182.6
48306.8 8716.42 150.562
27123.2 128099 182.294
147621 128764 182.294
45498.8 32349.6 145.686
48006.8 8999.82 150.562
90805.9 78211 142.414
132184 128742 182.294
115346 9428.62 150.562
131755 128685 182.294
131326 128620 182.294
130897 128485 182.294
103026 128897 182.294
74908.6 128897 182.294
42220.5 128986 182.516
42356.8 128897 182.294
69746.2 59170 132.333
28009.3 128897 182.294
27552 128593 182.294
97891 9428.62 150.562
147243 129376 182.42
54237 78211 142.414
132612 128961 182.294
69316.4 59169 132.331
103142 129444 182.589
103055 129326 182.294
74958.1 129326 182.294
42573.4 129339 182.326
68890.2 59171.6 132.337
68458.7 59169 132.331
42241.3 129436 182.568
44136.1 33185.1 155.279
28579.7 129326 182.294
45700.2 32241.7 145.416
146907 129899 182.653
146421 129842 182.511
146335 129558 182.294
74405.6 132440 145.054
145906 129614 182.294
145553 129831 182.485
145477 129612 182.294
58760.8 9428.62 150.562
145048 129576 182.294
144619 129507 182.294
144191 129433 182.294
143762 129373 182.294
143333 129411 182.294
142962 129812 182.438
57473.1 -8581.82 137.697
90960.8 78669.3 142.488
58315.6 9574.66 150.927
69558.3 106427 126.119
133628 129755 182.294
133041 129328 182.294
103126 129755 182.294
75310.1 129914 182.693
75034.9 129755 182.294
42624.4 129819 182.454
68036.8 59175.9 132.348
101791 33752.7 155.626
28838.5 129657 182.294
54253.5 78639.8 142.414
47449.2 9297.42 150.562
91046 79068.7 142.414
106078 110372 153.135
142046 130054 182.294
67615.8 59183.7 132.367
101580 33613.9 155.279
134328 130100 182.294
63332.1 53184.7 135.595
133899 129909 182.294
103123 130184 182.294
63016.6 53298 135.878
75119.6 130184 182.294
43032.5 130227 182.402
55682.4 32647.6 145.416
42989.5 129767 182.294
42661.9 130285 182.547
67193 59189.7 132.383
29180.7 130184 182.294
66772.4 59197.9 132.403
54217.6 79068.7 142.414
140760 130254 182.294
115219 9857.43 150.562
97828.8 9857.43 150.562
139902 130276 182.294
91243.2 79497.5 142.414
139474 130342 182.294
139215 130783 182.719
139045 130399 182.294
138616 130441 182.294
138187 130495 182.294
137758 130533 182.294
137329 130515 182.294
136901 130392 182.294
136472 130293 182.294
136043 130270 182.294
135614 130290 182.294
135185 130297 182.294
134757 130228 182.294
66355.5 59209.8 132.433
65940.7 59223.9 132.468
60819.7 33613.9 155.279
54072.5 79517 142.463
43053.7 130677 182.455
43274.2 130613 182.294
44123 33613.9 155.279
59085.5 9857.43 150.562
76956.9 56946.7 134.279
29420 130613 182.294
103024 130637 182.294
102861 131041 182.294
75228.5 131041 182.294
43044.8 131097 182.433
43223.3 131041 182.294
42711.6 131192 182.672
29614.2 131041 182.294
91462.2 79926.3 142.414
102565 131470 182.294
75226.6 131470 182.294
118804 33797.3 155.279
43107.3 131470 182.294
42690.9 131600 182.62
92606.5 103042 134.81
82043.8 53596.8 135.553
29806.1 131470 182.294
102341 131899 182.294
75202.6 131899 182.294
53897.6 79926.3 142.414
42640.6 131979 182.494
42843 131899 182.294
29809.5 132012 182.578
29868.3 131899 182.294
118627 34042.7 155.279
102259 132328 182.294
75265.3 132328 182.294
58745.6 10004.6 150.93
42472.2 132328 182.294
29811.7 132443 182.583
29864.8 132328 182.294
101489 34042.7 155.279
102249 132757 182.294
75343.8 132757 182.294
60401.8 80700.5 127.197
42252.1 132757 182.294
40893.4 17881.4 138.461
29863.4 132757 182.294
65514.8 59226.7 132.475
65094.7 59235.5 132.497
47158.9 9995.91 150.908
46591.6 9736.12 150.562
55253.6 32438.1 145.416
86385.8 111597 134.267
29804.8 133294 182.566
29905.8 133186 182.294
102166 133193 182.294
101908 133614 182.294
75579.7 133323 182.294
75772.4 133614 182.294
41703 133300 182.294
41274.2 133481 182.294
40845.4 133531 182.294
40416.6 133566 182.294
62120.2 106433 126.133
55035 2434.69 137.365
29861.5 133780 182.708
115260 10343.4 150.705
101738 133825 182.294
101518 134043 182.294
75955.1 134043 182.294
39987.7 133688 182.294
39558.9 133803 182.294
39537.4 20813.7 144.719
64682.8 59252.4 132.539
30124.9 133980 182.294
53684.9 80355.1 142.414
101309 134245 182.294
101103 134472 182.294
60960.5 34042.7 155.279
91389.9 93391.2 134.267
39130.1 134085 182.294
91956.8 80783.9 142.414
97726.3 10286.2 150.562
38532.9 134472 182.294
30260 134607 182.632
30368.5 134472 182.294
100880 134795 182.294
59164 10422.9 150.904
76043.9 134901 182.294
38272.5 134832 182.294
74087.6 59652 132.466
73629.6 59622.8 132.393
59968.7 80696.2 127.186
91788.9 80503.1 142.414
30664.8 134901 182.294
73178.1 59600.2 132.337
72730.2 59581.1 132.289
100442 135330 182.294
80897 53530.4 135.553
75981.9 135330 182.294
45839.5 32670.5 145.416
38072.1 135330 182.294
30904.6 135330 182.294
72281.5 59561.2 132.239
75829.5 135758 182.294
37938.4 135758 182.294
71854 59562.5 132.243
71427.8 59565.1 132.249
30982.7 135758 182.294
100022 135779 182.294
99800.6 136187 182.294
53421.3 80783.9 142.414
71002.7 59568.8 132.258
37843.7 136014 182.294
46255.9 10286.2 150.562
115270 10782.1 150.729
57591.8 99331.4 125.532
31043.2 136187 182.294
99717 136616 182.294
75150.8 136542 182.294
44148.9 34042.7 155.279
53195.3 81018.9 142.414
37414.8 136589 182.294
70573 59568 132.256
70134.2 59558 132.231
31091.5 136725 182.567
31185.1 136616 182.294
45047.8 110154 153.135
99637.7 137045 182.294
74722 136881 182.294
118508 34471.5 155.279
37568.3 137198 182.678
41596.3 43884.7 146.65
37059.3 137118 182.478
74759.3 99774.9 125.569
36557.2 137008 182.294
52955.7 81212.8 142.414
92707 81701.9 142.565
31411.4 136954 182.294
80532.2 53660.9 135.713
86412.4 79240.2 136.411
92217.7 81221.1 142.414
99583.5 137474 182.294
61126.5 34471.5 155.279
74087.7 137474 182.294
37148.4 137636 182.7
36653.8 137570 182.536
36128.4 137273 182.294
44263.7 34545.1 155.463
51551.4 18247.8 138.304
41703 2177.67 137.268
31840.2 137317 182.294
52337.6 81437.2 142.414
31580.4 137643 182.717
51908.8 81500.6 142.414
99564.3 137903 182.294
73864.4 137697 182.294
73671.6 137903 182.294
69695.9 59548.5 132.208
48478.3 12655.9 153.135
118481 34900.4 155.279
35770.2 137973 182.471
97585.6 10715 150.562
51480 81613 142.414
35112.6 137903 182.294
80112.7 53670.2 135.737
32269 137749 182.294
59603.1 10862.1 150.929
32004.6 138067 182.705
99628.5 138331 182.294
59854.9 10715 150.562
73435.6 138181 182.294
59560.1 80716.5 127.237
35862.7 138494 182.702
35397.5 138458 182.611
46171.7 10715 150.562
79610.5 53270 135.553
34764.7 138331 182.294
32363 138425 182.529
32483.5 138331 182.294
51051.2 81732.2 142.414
99792.8 138760 182.294
41641.7 43734 146.274
68838.4 59548.7 132.208
34955.8 138874 182.579
101059 34900.4 155.279
32644.2 138760 182.294
67980 59547.8 132.206
50622.4 81847.4 142.414
100022 139141 182.294
73006.7 138761 182.294
72769.2 139189 182.294
115183 11143.8 150.562
50193.6 81932.7 142.414
34542.7 139319 182.618
97765.9 11288.9 150.924
33984.3 139086 182.294
33567.1 139201 182.323
67572.5 59569.1 132.259
97460.8 11143.8 150.562
33126.6 139083 182.294
67152.3 59577.8 132.281
56385.6 33099.4 145.416
100463 139630 182.325
66738.2 59592.5 132.318
66324.7 59607.9 132.356
65909 59620.9 132.389
61290.7 34900.4 155.279
100917 140084 182.388
60067.5 11143.8 150.562
93276.1 82499.2 142.414
72240.5 140138 182.523
72377.6 140047 182.294
56025.6 24670.6 144.13
101109 140475 182.294
44293 34900.4 155.279
72187.3 140514 182.39
88444.1 136075 156.565
93075.4 82226.6 142.414
49764.7 82192 142.414
101363 140904 182.294
49547.7 82499.2 142.414
93543.8 82928 142.414
72063.9 140904 182.294
56111.2 32906.4 145.416
101809 141404 182.473
118480 35329.2 155.279
71805.9 141419 182.508
71921.7 141333 182.294
115189 11572.7 150.562
101633 141762 182.294
85175.2 141923 182.698
84691.1 141868 182.56
65481.3 59622.1 132.392
65057.2 59626.8 132.403
83727.2 141664 182.294
83298.4 141606 182.294
82869.5 141616 182.294
82440.7 141674 182.294
97330.7 11572.7 150.562
60197.9 11572.7 150.562
71756.7 141798 182.385
66462.9 97053.2 124.125
101756 142209 182.341
100980 35329.2 155.279
49496.6 83088.6 142.816
49484.8 82928 142.414
85442.5 142067 182.294
85013.6 141989 182.294
84584.8 141904 182.294
84156 141769 182.294
82011.9 141808 182.294
81583.1 141987 182.294
81361.4 142191 182.294
64628.1 59626.5 132.402
64210.6 59637.9 132.431
71455.2 142354 182.704
102325 142778 182.69
63804 59660 132.486
101720 142620 182.294
74969.8 60105.3 132.528
45751.4 11590.3 150.606
86300.1 142502 182.294
85871.3 142236 182.294
81154.3 142430 182.294
61506.3 35329.2 155.279
71720.3 142199 182.294
75403.2 81122 127.179
115241 12040.2 150.658
93933 83216.4 142.414
101752 143048 182.294
71834.3 37902.1 127.406
90301.8 143191 182.65
74502 60066.4 132.43
89332.4 143079 182.371
88938.6 143114 182.458
49556.5 83356.8 142.414
42524 48193.7 144.558
95219.5 83723.2 142.414
87586.5 142967 182.294
87157.7 142888 182.294
86728.9 142750 182.294
80840.5 143048 182.294
71392.4 143149 182.547
71592 143048 182.294
47701.8 103164 135.113
101779 143477 182.294
92009.6 143612 182.632
94790.6 83604.4 142.414
91359 143477 182.294
91017.1 143413 182.294
90588.3 143302 182.294
90159.4 143145 182.294
89730.6 143057 182.294
94361.8 83453.6 142.414
97192.1 11946 150.562
88444.2 143093 182.294
51104.1 18229.4 138.258
80588.7 143477 182.294
71366.7 143552 182.482
71509.1 143477 182.294
102281 144020 182.581
49737.2 83785.7 142.414
92732.4 143802 182.294
45883 33099.4 145.416
92303.5 143672 182.294
91874.7 143582 182.294
51051.3 17930.8 138.126
60330.8 12018.6 150.605
71338.5 143953 182.412
41523.1 2824.76 137.268
44282.4 35329.2 155.279
96077.1 84066.6 142.414
95648.3 83898.2 142.414
93673.3 144335 182.294
93161.2 143998 182.294
80296.6 144037 182.294
80067.8 144335 182.294
118417 35758 155.279
71398.2 144335 182.294
102271 144868 182.556
101818 144764 182.294
94018.8 144569 182.294
100794 35745.2 155.279
41340.7 3320.04 137.435
79397.9 53596.8 135.553
79778.6 144764 182.294
57472.9 109504 128.451
71406.2 144764 182.294
49914.5 84214.5 142.414
102267 145293 182.546
97002.9 84643.3 142.414
94447.6 144900 182.294
45253.5 12001.5 150.562
63368.3 53649.8 135.685
71329.8 145231 182.39
110692 44162.9 146.274
71019.7 145350 182.687
61681 35758 155.279
74029.4 60022.6 132.321
73581 60003 132.272
101714 145621 182.294
95398.6 145715 182.528
85185.2 44093.7 146.274
96505.9 84279.6 142.414
49982.2 84643.3 142.414
97182.9 85072.1 142.414
115269 12430.3 150.562
71350.8 145680 182.443
96992.9 12430.3 150.562
71031.6 145790 182.717
102316 146199 182.667
60520.2 12430.3 150.562
101586 146050 182.294
95734.1 145879 182.294
95990 146050 182.294
79010.2 145774 182.294
44229.9 35758 155.279
71372.1 146131 182.496
44876.3 12301 150.562
101813 146554 182.483
44971.4 12525.4 150.8
48734.4 14573.1 136.622
57061 33620.2 145.646
115299 12859.1 150.562
78739 146636 182.689
49839.4 85072.1 142.414
63177.4 31589.1 115.911
71720.3 146369 182.294
96825.1 12859.1 150.562
71396.4 146584 182.557
101853 147023 182.582
52766.5 -13348.5 135.982
101339 146938 182.371
97133.7 85500.9 142.414
118293 36186.8 155.279
97020.5 146776 182.294
63528.4 53596.8 135.553
96591.7 146502 182.294
49547 85500.9 142.414
97000.3 85929.7 142.414
72234.9 59819.5 132.123
55056.8 3682.46 137.268
77712.6 146908 182.294
60768.1 12859.1 150.562
71889.9 146908 182.294
71423.7 147040 182.625
49335.9 85778.4 142.414
101400 147428 182.524
41314.7 3722.98 137.37
100916 147372 182.384
100459 147345 182.315
44447.5 12656.9 150.562
44551.8 12963.5 150.823
100022 147275 182.294
99623.6 147367 182.37
64468.9 44162.9 146.274
115325 13287.9 150.562
99164.7 147208 182.294
98792.5 147393 182.436
50625 18179.2 138.133
98396.2 147426 182.517
98307 147111 182.294
61886.6 36186.8 155.279
97878.2 147064 182.294
71377.2 59800.8 132.123
97449.4 146978 182.294
48278.9 14546.4 136.555
77352.2 147394 182.438
96981.9 86405.7 142.532
71784.2 147400 182.454
72103.3 147337 182.294
96704.6 13287.9 150.562
101460 147917 182.673
101003 147889 182.603
100565 147879 182.579
60981.2 13287.9 150.562
99750.5 147922 182.687
44336.6 36333.2 155.645
44035.8 13305 150.605
44270.7 36186.8 155.279
76467.2 147795 182.369
49002.5 86358.6 142.414
97008 86787.4 142.414
72188.7 147805 182.393
82673.3 54086.8 135.706
70519.6 59797.4 132.123
71819.9 147865 182.543
76008.5 147820 182.294
76114.8 148300 182.56
75649 148263 182.468
115359 13716.8 150.562
118191 36615.6 155.279
75150.8 148023 182.294
96613.9 13716.8 150.562
74722 148059 182.294
50133.3 116805 144.558
74293.2 148129 182.294
73876.7 148206 182.325
69105.6 29926.1 121.402
73447.9 148206 182.325
61985.9 29926.1 121.402
61212.8 13758.2 150.665
73006.7 148029 182.294
72632.3 148249 182.43
66047.2 97066.4 124.158
72241.7 148287 182.526
41302.6 4139.62 137.339
48789.6 87216.2 142.414
74851.6 148753 182.618
74401.5 148731 182.565
73966.8 148725 182.55
73531.5 148719 182.534
73105 148721 182.54
72698 148743 182.595
72306.2 148780 182.687
97642.4 87645 142.414
138127 108143 181.866
97363.5 87269.7 142.414
137587 108036 181.866
137732 108288 182.229
137158 108046 181.866
136729 108063 181.866
136300 108093 181.866
135871 108065 181.866
135443 107995 181.866
100365 36325.3 155.279
105940 110660 153.135
48723.9 87645 142.414
43881.3 13716.8 150.562
138873 108462 181.866
138444 108254 181.866
134585 108221 181.866
134156 108351 181.866
133727 108452 181.866
70090.8 59766.5 132.123
133350 108571 181.866
140318 109159 182.262
139776 109000 181.866
100150 36615.6 155.279
139302 108727 181.866
97792.4 87884.3 142.414
132870 108755 181.866
132441 108882 181.866
48678.5 88073.8 142.414
74282.5 99727 125.449
141517 109429 181.866
98066.6 88502.6 142.414
141017 109336 181.866
140588 109289 181.866
140160 109182 181.866
132012 109043 181.866
131583 109212 181.866
131154 109319 181.866
131258 109532 182.124
48629.6 88502.6 142.414
41643.5 44162.9 146.274
130654 109429 181.866
98192.4 88931.5 142.414
44314.5 36615.6 155.279
41531.5 109392 181.866
115465 14145.6 150.562
41158.8 109485 182.006
40673.9 109281 181.866
48566.5 88931.5 142.414
40245.1 109222 181.866
39816.2 109142 181.866
96560.4 14145.6 150.562
38958.6 109020 181.866
38529.8 109071 181.866
38101 109191 181.866
61421.8 14145.6 150.562
98301 89360.3 142.414
37571.3 109429 181.866
47872.9 102997 134.696
69344.4 30354.9 121.402
141875 109557 181.866
130297 109558 181.866
69233.1 59729.8 132.123
97363.6 116949 144.558
48493.5 89360.3 142.414
42818 109795 181.866
42389.2 109550 181.866
42459.2 109928 182.041
41960.3 109457 181.866
43870.4 14145.6 150.562
37243.3 109615 181.866
36852.8 109858 181.866
142907 110287 181.866
118096 37044.5 155.279
129868 109867 181.866
115692 14634.7 150.713
98440.2 89789.1 142.414
129318 110287 181.866
52509.2 78897.1 136.411
44322.1 110287 181.866
110642 44591.7 146.274
43675.6 110162 181.866
102145 34107.1 145.791
99833.8 37044.5 155.279
43311.2 110351 182.027
57101.8 109562 128.595
62323.6 37044.5 155.279
36385.7 110042 181.866
36530.7 110432 182.228
35956.9 110123 181.866
48560.3 13112.7 153.34
48407.4 89789.1 142.414
35547.5 110306 181.914
68375.5 59681.6 132.123
143311 110715 181.866
44247 37044.5 155.279
129010 110617 181.866
96546.4 14574.4 150.562
74764.3 81041.2 126.977
61614.2 14574.4 150.562
45125.4 110715 181.866
84756.4 44516.4 146.274
98714.7 90282.6 142.576
44167.3 14723.1 150.933
99507.7 37456.7 155.279
35164.2 110780 182.028
43902.3 14574.4 150.562
143760 111314 182.29
143560 111144 181.866
128590 111144 181.866
45476.1 111229 182.079
45615 111144 181.866
76400.3 109992 128.6
70648.3 33528.1 123.975
34738.7 111213 182.036
115906 15003.2 150.562
143721 111573 181.866
